0.04073744 -0.14358005 -0.26509243
0.04013315 -0.09484752 -0.29126808
0.05810375 -0.08831006 -0.28828236
0.04251559 -0.05872330 -0.30459464
0.06673443 -0.04536418 -0.30505151
0.05547180 -0.00621333 -0.32483456
0.00288136 -0.03637366 -0.30614400
-0.00704691 -0.00267991 -0.30707410
0.08789437 -0.10495158 -0.24253455
0.10370274 -0.05415671 -0.25575218
0.10220491 -0.14282432 -0.21018136
0.11777769 -0.11114958 -0.21085368
0.08451422 -0.02367825 -0.30471036
0.12162839 -0.01271244 -0.26714364
0.14149208 -0.08047996 -0.19659741
0.14024884 -0.05193530 -0.21520858
0.18141825 -0.02567451 -0.18874289
0.16618352 -0.07210256 -0.17706425
-0.15330766 -0.12452537 -0.22071661
-0.09704971 -0.10107229 -0.25865048
-0.11450195 -0.16182627 -0.24178940
-0.14645122 -0.04692970 -0.21966840
-0.07697835 -0.08587748 -0.27329975
-0.18848789 -0.13849469 -0.19386135
-0.11890618 -0.18849996 -0.23129669
-0.12528321 -0.20653310 -0.21253820
-0.15070412 -0.19772641 -0.18895552
-0.18524960 -0.15813273 -0.18887810
-0.18923454 -0.18470646 -0.15265709
-0.16440827 -0.19187227 -0.15311942
-0.20585771 -0.18569092 -0.12268011
-0.24999788 -0.16394085 -0.11859567
-0.23684518 -0.13342789 -0.16021782
-0.20259067 -0.07414556 -0.18735847
-0.20306051 -0.03753407 -0.19319749
-0.13927822 0.02957645 -0.22492526
-0.27057394 -0.14958209 -0.12142394
-0.25750938 -0.03779440 -0.15580836
-0.27862686 -0.07532053 -0.14413266
0.02064900 -0.20360529 -0.25576410
0.02514378 -0.21791641 -0.21502215
-0.01865888 -0.21113011 -0.24833338
0.00620046 -0.18032031 -0.27597842
-0.04140453 -0.18038243 -0.26386976
-0.04419600 -0.11180664 -0.28250384
0.02747179 -0.15566376 -0.27439505
0.04962597 -0.18866825 -0.25781375
-0.05771429 -0.21330807 -0.23913255
-0.04496634 -0.22939019 -0.22489123
-0.07965808 -0.21955284 -0.22342363
-0.04942079 -0.23074418 -0.20803365
-0.10499884 -0.21707629 -0.19427897
-0.00802527 -0.22761412 -0.20502384
0.00125796 -0.22785336 -0.16804181
-0.04773203 -0.21233886 -0.13125436
-0.06347377 -0.14945795 -0.26557377
0.05813172 -0.20939317 -0.22830899
0.08799221 -0.20718457 -0.20442928
0.09289087 -0.21578673 -0.17780940
0.09375656 -0.19506399 -0.20885441
0.08687407 -0.14971815 -0.22353402
0.11884542 -0.15438111 -0.18610756
0.12745047 -0.19232272 -0.14899278
0.14656417 -0.15101834 -0.14898381
0.04794083 -0.21834144 -0.16864681
0.05737211 -0.22352818 -0.10877784
0.08004268 -0.21332626 -0.13323666
0.12115395 -0.20405594 -0.12864378
-0.03199536 -0.07169519 -0.29232183
0.01066581 -0.12878597 -0.28412110
-0.05735792 -0.03832718 -0.28480747
-0.10386807 -0.00654631 -0.25053617
0.16538578 -0.11122255 -0.14088362
-0.07512706 -0.20234995 -0.09479482
-0.12109224 -0.19214594 -0.11355744
-0.14911264 -0.16882506 -0.05694513
-0.09301011 -0.18412054 -0.03770868
0.02693875 -0.22382826 -0.11918646
0.01369290 -0.21122088 -0.08913583
0.09286084 -0.22185363 -0.04935802
0.05204489 -0.21703549 -0.06195210
-0.03390451 -0.19593963 -0.04882503
-0.00075865 -0.19739409 -0.03746133
-0.06165050 -0.18875027 0.00135215
0.03884486 -0.18944588 0.00419174
0.23706391 -0.02968510 -0.14720471
0.16888031 -0.17191596 -0.11455153
0.19362248 -0.12747167 -0.10496868
0.14354330 -0.19613843 -0.10944098
0.17328174 -0.18222585 -0.06947055
0.12526152 -0.20575003 -0.06584059
0.20822036 -0.14288175 -0.06941232
0.19131486 -0.18228073 -0.02653783
0.22422890 -0.15074097 -0.03264486
0.24318109 -0.17679814 0.00433253
0.24802160 -0.12813006 -0.01913500
0.27814710 -0.17727908 0.02506010
0.30611125 -0.13952267 0.04294965
0.19803536 -0.07411751 -0.14554550
0.22831437 -0.08729812 -0.11100013
0.25249836 -0.06037858 -0.11922421
0.28038800 -0.03845695 -0.09710812
0.26867354 -0.00261851 -0.11724656
0.24488911 -0.11773279 -0.03482816
0.30323231 -0.00172558 -0.08822630
0.30543193 -0.02715470 -0.07682748
0.31144127 -0.03934552 -0.04764816
0.27409327 -0.07514370 -0.04788846
0.33093539 0.00825866 -0.03987920
0.30691972 -0.05118011 -0.00894269
0.29897436 -0.07231148 -0.00822189
0.31521201 -0.08506884 0.02257343
0.32448548 -0.04403071 0.02535578
0.33247438 -0.00167156 0.00801699
0.10718805 -0.21439768 0.01785501
0.11309836 -0.21931608 -0.01428666
0.14918272 -0.21577674 0.02304080
0.17858154 -0.20201306 0.01080718
0.15475024 -0.21684995 0.06580036
0.06787294 -0.20429184 0.00628802
0.10670561 -0.20260136 0.07445922
0.05888211 -0.18449935 0.04272880
0.20705205 -0.19013581 0.00694652
0.26301712 -0.18960120 0.03328830
0.22176494 -0.20456707 0.08050691
0.28788620 -0.18301322 0.05045010
0.26904991 -0.19719653 0.09248424
0.31112474 -0.15882577 0.06667177
0.19369771 -0.21693569 0.10658826
0.12584238 -0.19826616 0.11452688
0.23405321 -0.20205259 0.11720749
0.28107285 -0.18177043 0.12660879
0.20080031 -0.21632095 0.13000870
0.24520247 -0.17228952 0.15118529
0.34212321 -0.09797084 0.05039909
0.33468154 -0.13539842 0.07039433
0.38015932 -0.08107061 0.09868739
0.37186646 -0.01477178 0.06105070
0.38020003 -0.05329267 0.08684520
0.40239325 -0.03510120 0.11663586
0.40781006 -0.00821503 0.10167683
0.30506125 -0.17581667 0.10672017
0.35719848 -0.13225323 0.12179989
0.32994419 -0.15693513 0.15443119
0.31240663 -0.16004772 0.16362342
0.27194437 -0.15086095 0.17037596
0.37085330 -0.10750344 0.10994195
0.38261688 -0.08935147 0.12540680
0.35903141 -0.10355812 0.17139441
0.37810108 -0.06642973 0.18656035
0.31852686 -0.13719261 0.17829572
0.27664971 -0.10122705 0.18427077
0.32808051 -0.09624713 0.18053870
0.30293137 -0.05993958 0.18154182
0.35722813 -0.05899941 0.19355610
0.33097598 -0.01543910 0.18658870
0.36827245 -0.02164415 0.19191508
0.28787562 -0.02110840 0.19523369
0.39167529 -0.04026302 0.15286189
0.42143413 0.00304355 0.13028514
0.38728771 -0.01232438 0.17052244
0.09503634 0.01813195 -0.31349838
0.07478055 0.00680371 -0.32528365
0.05824492 0.03122580 -0.32959062
0.08236387 0.05817698 -0.33952811
0.10022733 0.05703698 -0.33284858
0.05857313 0.13094854 -0.33445856
0.08441979 0.10258883 -0.33791965
0.10356845 0.15262805 -0.34290823
-0.03191328 0.08455592 -0.29140308
0.01803049 0.07168659 -0.31404296
0.14173001 0.05074227 -0.28392339
0.16384873 0.03292970 -0.25590372
0.17996782 0.05704652 -0.25185251
0.11672617 0.11943620 -0.32777870
0.11460182 0.07379214 -0.32400271
0.16489296 0.08929066 -0.26899981
0.19731359 0.12701090 -0.24474329
0.17104167 0.00130632 -0.21769217
0.19734541 0.01087384 -0.20074749
0.08150513 0.14996544 -0.34536275
0.09324928 0.17072593 -0.33980495
0.02397680 0.17106749 -0.31263995
0.06609987 0.18434049 -0.32485300
0.09005772 0.19027874 -0.31405553
-0.01727980 0.12270346 -0.30022067
0.00358160 0.15142493 -0.30895841
-0.04990651 0.15024339 -0.27708697
-0.00423327 0.17545494 -0.29338568
0.06006326 0.19472784 -0.30695301
0.00929488 0.18433459 -0.27954626
0.08179383 0.19044051 -0.25084916
0.12518202 0.14388014 -0.32810587
0.12161910 0.16953756 -0.32556486
0.16190375 0.14047915 -0.28022677
0.15679255 0.15459880 -0.26594123
0.12483063 0.17539741 -0.27141726
0.17038308 0.12879460 -0.26888588
0.18165165 0.14615114 -0.25068039
0.14240626 0.16472949 -0.23903883
0.16614993 0.15854369 -0.20753467
0.20636986 0.14378977 -0.22848880
0.13959910 0.16504264 -0.18111007
0.10609971 0.17646572 -0.20052481
-0.09239640 0.06492017 -0.25553659
-0.13101478 0.08229026 -0.23351578
-0.07900491 0.13223766 -0.26632249
-0.11390804 0.13088912 -0.24325889
-0.17837521 0.07422198 -0.20722663
-0.15253557 0.13241598 -0.22079286
-0.14452112 0.15027702 -0.21316358
-0.08702927 0.15055244 -0.25227293
-0.19598797 0.01907628 -0.19649717
-0.24172744 0.09648553 -0.16628739
-0.29529458 0.07801526 -0.12931572
-0.15111125 0.15095139 -0.20045476
-0.19361944 0.11571285 -0.19602183
-0.20837308 0.13156208 -0.17621617
-0.18835898 0.14115018 -0.17005989
-0.26433873 0.11120372 -0.14676490
-0.11225997 0.14874277 -0.16593876
-0.24244814 0.13095532 -0.14122179
-0.16288282 0.13903353 -0.11390614
-0.04566222 0.01597730 -0.28737083
-0.04134239 0.16925223 -0.26545253
-0.02134936 0.17495506 -0.24494486
-0.08054557 0.16330767 -0.23086458
-0.05622536 0.16005805 -0.18496488
-0.00409389 0.16427593 -0.18923774
0.09681783 0.17661820 -0.15267855
0.08679424 0.17480463 -0.19802116
0.03833404 0.16205378 -0.17150892
0.12678105 0.17597637 -0.12960407
0.01724974 0.15781532 -0.11797176
0.06094541 0.16030608 -0.12090579
0.10935616 0.17122810 -0.09426098
-0.08534482 0.15782574 -0.12842964
-0.03765751 0.15995003 -0.13750473
-0.11174088 0.15821663 -0.09697973
-0.15654896 0.15329076 -0.05989505
-0.03233548 0.16042662 -0.07080486
-0.10134435 0.15868340 -0.05744156
-0.00811358 0.16347584 -0.05640825
0.06806413 0.16837263 -0.05620612
0.05729167 0.16851830 -0.01709785
-0.07069387 0.16418949 -0.04445716
-0.03992676 0.17049387 0.00843418
0.00092504 0.16867261 -0.00041134
0.03318497 0.17790708 0.02362244
0.20243239 0.05355862 -0.22330503
0.25590348 0.12799400 -0.20292623
0.25235626 0.06238564 -0.17547643
0.23896435 0.01016489 -0.16255407
0.23996511 0.07659492 -0.19998221
0.27918375 0.04788731 -0.14731435
0.30007780 0.10812069 -0.12300991
0.28449580 0.11758000 -0.15212385
0.30220017 0.02769046 -0.09912509
0.30500689 0.06733749 -0.11401442
0.31197846 0.06386054 -0.08480871
0.29048872 0.12937483 -0.08078576
0.26873228 0.14428598 -0.18782441
0.23219787 0.15221697 -0.19244070
0.17930661 0.16359384 -0.16893525
0.17278300 0.18090191 -0.11632583
0.29241639 0.13856962 -0.14092034
0.26746958 0.15603127 -0.16745651
0.23417835 0.17276253 -0.13351597
0.28838536 0.16026132 -0.12623534
0.29671368 0.15084834 -0.11606392
0.27914459 0.18515870 -0.07725322
0.29380035 0.16759324 -0.08646277
0.32604429 0.01989721 -0.06441703
0.32389683 0.04554352 -0.06298546
0.34742272 0.03563225 -0.00996099
0.30366477 0.09382515 -0.05657264
0.29398045 0.12891422 -0.06013533
0.32784700 0.05947875 -0.04256634
0.35012552 0.06736630 -0.00694890
0.32434961 0.09959327 -0.02461827
0.33623686 0.10993885 0.01630999
0.16922124 0.18756723 -0.08208068
0.22388645 0.18674536 -0.09142904
0.22536784 0.18614326 -0.06516636
0.27378708 0.18668346 -0.05795972
0.13635662 0.17937970 -0.04288710
0.16755514 0.18066582 -0.01448181
0.12345983 0.17495373 0.00785032
0.15915108 0.17159152 0.04203652
0.29585105 0.16961968 -0.05156114
0.31321543 0.14342232 -0.02817167
0.32587996 0.16048597 0.00490689
0.29843199 0.17631330 -0.00470898
0.26694867 0.16102223 0.05160569
0.22953036 0.16490868 0.02850980
0.31085154 0.15604471 0.09129382
0.11793922 0.17318444 0.06652606
0.09233945 0.17313854 0.03084432
0.05475657 0.17990477 0.06694159
0.18764357 0.16269755 0.07577074
0.21797013 0.16277136 0.10330284
0.26805758 0.15373152 0.09386925
0.22620577 0.14558779 0.11753084
0.23881273 0.13052939 0.12456716
0.21206389 0.12158787 0.13771494
0.22931232 0.09541713 0.15732637
0.19713332 0.15908994 0.14305224
0.13558266 0.17979608 0.12784876
0.18755201 0.17337041 0.12731126
0.35930878 0.05577642 0.02803533
0.34999612 0.02210779 0.03112507
0.40068313 0.03472900 0.08599020
0.37124553 0.04381214 0.05511540
0.41513336 0.05118121 0.10442746
0.35880485 0.07899512 0.04080055
0.37374741 0.08413504 0.07339968
0.40442842 0.06330243 0.09536403
0.36645085 0.12310237 0.08199913
0.39743799 0.10203156 0.11765144
0.41315916 0.05246408 0.12567349
0.34351769 0.14985754 0.04951509
0.32607594 0.16463380 0.04660129
0.34366342 0.15642932 0.07517874
0.34248984 0.13344352 0.10088159
0.36695558 0.12515852 0.09821165
0.36929747 0.04247427 0.16178471
0.39614505 0.05573067 0.14355965
0.35845602 0.07844360 0.16145886
0.39214686 0.09341193 0.13655503
0.33888873 0.07361143 0.16803998
0.32943618 0.09610747 0.14219658
0.37976405 0.01414792 0.16873465
0.32882032 0.01905274 0.17702657
0.26734963 0.00506483 0.19427647
0.28841442 0.02636403 0.18012917
0.28803429 0.04411479 0.17140943
0.24335828 0.05646208 0.16734406
0.30475318 0.09081767 0.15067641
0.26567921 0.11061271 0.15580496
0.22311263 0.07775985 0.16200256
0.41019282 0.02179049 0.14763865
0.30409604 0.13334680 0.12735438
0.27501830 0.13176793 0.13651812
0.35092044 0.12106068 0.11239164
0.37793663 0.11327417 0.12622657
-0.28119394 -0.15953109 -0.08479745
-0.24577200 -0.16535594 -0.08055241
-0.19398321 -0.16667138 -0.05512109
-0.20415020 -0.15494676 -0.02143952
-0.28449190 -0.12624523 -0.12886356
-0.30040893 -0.14533785 -0.09379726
-0.30645409 -0.08510314 -0.12229434
-0.31633216 -0.00467743 -0.11299907
-0.32549626 -0.12508681 -0.08383107
-0.31614894 -0.14487253 -0.06340476
-0.27760583 -0.15462080 -0.05232135
-0.33929983 -0.04041071 -0.09944431
-0.33747092 -0.07596030 -0.09075009
-0.36387858 -0.04339289 -0.07750834
-0.35846716 -0.11281982 -0.03236116
-0.34635136 -0.12067258 -0.02238480
-0.29757327 -0.14029935 -0.03504056
-0.36786062 -0.08037765 -0.04209156
-0.29945451 -0.10797253 0.02571349
-0.36614496 -0.08715624 0.01517207
-0.26582804 -0.12705411 0.04144834
-0.38600349 -0.02685118 -0.04956429
-0.37487888 -0.08894422 -0.01451302
-0.38128355 -0.05319592 -0.03107686
-0.40628979 -0.01101298 -0.02643454
-0.34863880 -0.10090937 0.01591342
-0.38662580 -0.04922924 0.00257796
-0.37123013 -0.05476275 0.05747296
-0.33988884 -0.08126716 0.07872222
-0.28326711 -0.09279872 0.07615892
-0.13402611 -0.15807544 0.00269787
-0.12294666 -0.15543275 0.02559420
-0.01539221 -0.18236911 0.02849767
-0.07670927 -0.16273983 0.08555481
0.00101053 -0.17354016 0.08662357
-0.03861054 -0.18112005 0.06935342
-0.03455592 -0.17740943 0.10780329
-0.24990213 -0.14206666 0.01205724
-0.21838893 -0.14395694 0.01373061
-0.18218765 -0.12835090 0.09862852
-0.10560782 -0.13926710 0.12093279
-0.22739421 -0.13432942 0.06812790
-0.13809249 -0.13228807 0.12224910
-0.24149685 -0.11048279 0.12953676
-0.20896718 -0.12628940 0.12956111
-0.20269723 -0.12257332 0.16730417
-0.26993039 -0.08121438 0.13064478
-0.10126737 -0.13042134 0.17203581
-0.15943244 -0.11927799 0.16341631
-0.12279352 -0.12270528 0.19869442
-0.08337805 -0.13366368 0.22390130
-0.11853424 -0.11602631 0.23038992
-0.33887646 -0.05869611 0.14740188
-0.37052122 -0.03594964 0.10711098
-0.35618475 -0.04280388 0.13471885
-0.22773652 -0.10567118 0.18691674
-0.31736118 -0.07478680 0.13306452
-0.29090703 -0.06983308 0.18605888
-0.25665095 -0.07608783 0.19214939
-0.28715661 -0.05836687 0.21732512
-0.30729866 -0.04467259 0.21139796
-0.24496152 -0.06620659 0.21356739
-0.28040430 -0.04449713 0.23586270
-0.19814973 -0.11908791 0.20056678
-0.21047880 -0.10096071 0.21873096
-0.17935283 -0.11162929 0.22361667
-0.13339457 -0.09438112 0.25390676
-0.22075064 -0.05396700 0.23550691
-0.18115248 -0.06312835 0.24826565
-0.19781525 -0.03176286 0.25154248
-0.16695601 -0.03379702 0.26771712
-0.12428969 -0.06267449 0.28068417
-0.22755034 -0.03013688 0.24910167
0.05332945 -0.16673511 0.10913877
0.09519619 -0.17778879 0.12219737
0.07085661 -0.16386683 0.12979691
0.03245084 -0.16430213 0.15134470
0.08765916 -0.15605088 0.20557250
0.03826168 -0.16170472 0.20545512
0.13954729 -0.19126613 0.17007826
0.20422314 -0.18991427 0.17334566
0.17615606 -0.19603279 0.17742449
0.18191557 -0.16248807 0.19674540
0.23042102 -0.15483727 0.17201601
0.11755980 -0.17139784 0.18072926
0.13137905 -0.16544667 0.19519624
0.15150785 -0.14655562 0.21459915
0.19745865 -0.11076131 0.18926030
0.10498837 -0.14472181 0.22441189
0.16910860 -0.11068396 0.21559642
0.19117554 -0.07846118 0.22970015
0.13030589 -0.12615016 0.22591075
0.10589218 -0.08657027 0.24370141
0.17296962 -0.05165676 0.23554637
0.21686332 -0.04486834 0.21373890
0.20013408 -0.01183776 0.19280832
0.13929263 -0.02392112 0.22694102
0.13008562 -0.06950738 0.24187648
0.19098203 -0.06621149 0.23478170
-0.03058568 -0.17168029 0.14439642
-0.04181388 -0.15937157 0.19127819
0.00018183 -0.17060451 0.20034868
0.05978418 -0.15149826 0.22493464
0.03854693 -0.14501128 0.22172460
-0.03370139 -0.14415413 0.21495739
0.00895298 -0.10522801 0.22945975
-0.08044036 -0.11845379 0.24755351
-0.02167855 -0.11710943 0.22916391
-0.03719179 -0.08193450 0.24881050
-0.08107767 -0.07811631 0.25208378
-0.00646122 -0.07971062 0.25641108
-0.05757618 -0.05333017 0.26205739
0.02220409 -0.06785366 0.27406350
0.00172957 -0.04531790 0.27784044
-0.02122290 -0.02986369 0.29156503
0.07316063 -0.12527630 0.24774474
0.04373177 -0.10134441 0.25221479
0.05965411 -0.09427433 0.25771827
0.08831053 -0.06212516 0.24504662
0.04627188 -0.07445952 0.26441526
0.06660582 -0.04491378 0.24952409
0.03504053 -0.03166270 0.27758923
0.00955134 -0.01832041 0.29217440
0.24094917 -0.12028176 0.18506032
0.22710267 -0.08429597 0.20320857
0.23830822 -0.05081857 0.20719649
0.23580857 -0.02636831 0.21012564
-0.09778183 -0.10282111 0.24618550
-0.10536553 -0.07347467 0.27163756
-0.07071298 -0.02698746 0.29567543
-0.10527372 -0.03601841 0.29476672
-0.33934337 0.06107956 -0.10338284
-0.37003130 0.00649752 -0.07975562
-0.39111787 0.07267365 -0.07411961
-0.36428085 0.09823295 -0.08965013
-0.30968934 0.03015455 -0.12051327
-0.30821136 0.09970439 -0.11504439
-0.35417140 0.12466963 -0.08257814
-0.39711744 0.09764688 -0.06567631
-0.27635747 0.12898985 -0.10834412
-0.29302430 0.12455291 -0.10952949
-0.22932203 0.13394599 -0.10406879
-0.26219699 0.13964748 -0.06257206
-0.19451319 0.13917020 -0.08803160
-0.23330146 0.15184242 -0.04009142
-0.31805009 0.14113913 -0.08299538
-0.35011551 0.13470821 -0.06552844
-0.32202303 0.14370756 -0.05330373
-0.27789634 0.13954119 -0.02238671
-0.40104070 0.01232940 -0.05232981
-0.41740608 0.03694673 -0.03393314
-0.41498819 0.06844228 -0.04713027
-0.42063421 0.08109196 -0.02813562
-0.42157784 0.02221147 0.00496174
-0.42405042 0.07300179 0.00946294
-0.40858859 -0.01125499 0.01494829
-0.39356974 -0.01211732 0.06507295
-0.42657411 0.02404395 0.04135435
-0.42891604 0.04003979 0.03508402
-0.38572118 0.11181848 -0.05030920
-0.39922291 0.11146159 0.00121153
-0.36104411 0.12852223 -0.01503814
-0.31039071 0.13554494 0.00688154
-0.29251358 0.13841215 0.04377824
-0.32845810 0.12319575 0.02155789
-0.38941646 0.10765112 0.02579437
-0.41640857 0.07360429 0.03657959
-0.38693705 0.08043201 0.05627559
-0.35704863 0.09240787 0.06051317
-0.32472804 0.10444964 0.05391310
-0.31329298 0.10399350 0.07424372
-0.34285167 0.08654393 0.09047373
-0.15855369 0.15302110 0.01381854
-0.08364423 0.16505542 0.00390503
-0.24227881 0.14642708 0.03967110
-0.19857548 0.15321009 0.06600998
-0.09851420 0.16122152 0.05398632
-0.19400968 0.15964754 0.09633880
-0.05513551 0.17157452 0.05963778
-0.00354888 0.17376468 0.03267579
-0.01005426 0.17049578 0.07246689
-0.13222046 0.16460541 0.10043074
-0.05488452 0.17762880 0.10314462
-0.22922745 0.15791500 0.10818411
-0.28288805 0.13482358 0.08008397
-0.22844921 0.15164492 0.13642789
-0.29974869 0.10106826 0.11385607
-0.26157531 0.10701413 0.15745518
-0.26474032 0.12370279 0.12105477
-0.16758023 0.17220275 0.17518081
-0.10030635 0.16877982 0.15598466
-0.05752346 0.17342721 0.15281229
-0.08239537 0.16699371 0.18691479
-0.13656843 0.17222673 0.18021619
-0.19583330 0.16367930 0.17351127
-0.22051510 0.14392477 0.19171828
-0.19018053 0.15254611 0.21577834
-0.14384501 0.16153109 0.21563520
-0.39111283 0.01518812 0.08261878
-0.31889465 0.02646042 0.12623014
-0.36238798 -0.01978637 0.12093823
-0.41174173 0.04285139 0.05945205
-0.36519831 0.05120602 0.08270900
-0.30832416 0.07772649 0.13029540
-0.32716483 -0.01964479 0.17317154
-0.29712462 0.03336519 0.15070935
-0.27564815 0.01338676 0.24056205
-0.27764615 0.08262724 0.15640774
-0.25930780 0.08941901 0.18091476
-0.27345675 0.03810749 0.20307136
-0.30529290 -0.02194999 0.22099228
-0.25047070 0.00929020 0.27156106
-0.24522045 -0.01372949 0.26118264
-0.21657838 0.03795522 0.28541043
-0.25149375 0.03077867 0.27146763
-0.17468479 0.02741800 0.27939758
-0.14800052 0.03071283 0.28704840
-0.24277519 0.06950332 0.25954401
-0.22322948 0.06280260 0.28434169
-0.23484008 0.07488282 0.27086246
-0.15050970 0.05927463 0.28517708
-0.18421815 0.07717327 0.28700766
-0.23139401 0.11928815 0.21686150
-0.21102692 0.12088204 0.24479696
-0.17403203 0.12600595 0.26918316
-0.16085805 0.14772528 0.25230649
-0.14455754 0.12531790 0.27449229
0.20425987 0.01269237 0.17998619
0.15175128 0.04048473 0.19137278
0.19588508 0.04443814 0.16168155
0.17135000 0.09392066 0.18148586
0.10707044 -0.00589398 0.23070298
0.12940295 0.04816785 0.19885467
0.10217126 0.06449860 0.20959960
0.10140082 0.11289528 0.20265345
-0.01569135 0.17757167 0.10980289
0.06432631 0.18540286 0.11410090
0.01561801 0.18153244 0.12958446
0.10120311 0.18366644 0.15309112
-0.00465161 0.16570227 0.17477676
0.07341521 0.18208323 0.18818630
0.03987871 0.17901336 0.17679949
0.03372921 0.17388718 0.21158360
0.16915683 0.12725928 0.16275580
0.16597608 0.16029701 0.15495557
0.11506703 0.15480816 0.18552488
0.14557330 0.17386073 0.15398912
0.07814600 0.11294902 0.21952394
0.07299946 0.14863408 0.21883120
0.10485312 0.17399967 0.18349913
0.05673127 0.16758338 0.21977703
0.08241591 0.01461077 0.24359362
0.04752554 0.00938976 0.26824680
0.07734963 0.06771769 0.23745026
0.05026679 0.07358696 0.25859511
0.01528634 0.05304693 0.29597598
0.01097520 0.01738242 0.29683945
0.03090284 0.08684035 0.27812269
-0.03212305 0.08189745 0.30572477
-0.02806597 0.16453497 0.20856269
-0.07447968 0.15857466 0.24430577
-0.03161981 0.16062042 0.25657445
-0.09795196 0.15263270 0.25640658
-0.04762229 0.15044305 0.28060049
0.02517426 0.16498783 0.25785717
-0.01560797 0.14299832 0.28205886
0.04460566 0.14217053 0.26282424
0.02799521 0.13053709 0.28004223
-0.02764120 0.10624876 0.30340040
0.24183416 0.02392950 0.18919188
-0.12849952 0.00168405 0.28706264
-0.10005773 0.00914379 0.31544167
-0.04193130 -0.00424872 0.30312362
-0.04068416 0.04374475 0.31718475
-0.08335903 0.02035148 0.32466349
-0.10996382 0.06137797 0.31828415
-0.08899057 0.08345386 0.30877930
-0.13677163 0.07593350 0.28750938
-0.06243660 0.06189367 0.31523016
-0.11619552 0.04554439 0.31802058
-0.11117665 0.12832111 0.27729085
-0.06475280 0.11868269 0.30355206
