0.31367511 -0.28397477 -0.10951710
0.19957986 -0.32553577 -0.17621155
0.30192658 -0.25757822 -0.16169398
0.20705877 -0.25281581 -0.21615423
0.10645705 -0.26138321 -0.25934705
0.08840786 -0.30930227 -0.21052338
0.01322389 -0.30952922 -0.27459958
0.01903947 -0.24573664 -0.32024667
-0.07310191 -0.32044131 -0.29819575
0.16540138 -0.27919838 -0.22505146
0.16893007 -0.35027784 -0.15230756
0.23756634 -0.20175558 -0.24014501
0.16103651 -0.20475584 -0.26130736
0.08213634 -0.20590879 -0.31280187
0.21346293 -0.15997982 -0.28674001
0.16663089 -0.11494331 -0.32140484
0.35529780 -0.35426292 0.05545187
0.29695788 -0.35166115 -0.01469420
0.36467019 -0.34836668 0.01471370
0.22001250 -0.36149421 0.00348169
0.25536570 -0.31716469 0.07877338
0.31777039 -0.31154579 0.12058543
0.26667494 -0.30094653 0.17551705
0.16500805 -0.29660776 0.14330396
0.19737385 -0.26718664 0.21668491
-0.16521597 -0.31900382 -0.19892927
-0.09350920 -0.33190382 -0.25569114
-0.08504294 -0.36060929 -0.16156209
-0.09990485 -0.34442842 -0.07887793
-0.16295654 -0.30337089 -0.09008189
0.05911209 -0.36540779 -0.13325022
0.10891382 -0.35159534 -0.14057508
0.05162895 -0.37399313 -0.10598148
0.15953748 -0.35535961 -0.07895911
0.13999000 -0.35105306 -0.05798714
0.05483337 -0.36591172 -0.03709019
0.10538790 -0.32358849 0.01729823
0.25275090 -0.33336839 -0.08970526
0.19691309 -0.32509303 0.05643276
-0.00855683 -0.36052886 -0.14445771
-0.02083285 -0.34875011 -0.19618663
-0.04229479 -0.34379590 -0.04748207
0.01149472 -0.32317322 0.04047263
-0.05872960 -0.31559336 0.01103292
-0.01007085 -0.29788402 0.09594479
0.11695654 -0.29376662 0.08356161
0.03768543 -0.26988366 0.13967614
-0.02422926 -0.25669956 0.15179320
0.09770008 -0.26255018 0.16341668
0.14425479 -0.25808021 0.22024290
-0.17686576 -0.28477475 0.01513724
-0.11889038 -0.29073718 0.06702141
-0.12692732 -0.27002576 0.10483026
-0.29589358 -0.20547225 0.00093994
-0.21743082 -0.24889478 0.04279006
0.48376602 -0.25203565 -0.03595307
0.51227421 -0.22559437 -0.07953478
0.53168976 -0.23100145 -0.03827374
0.57321876 -0.18625678 -0.06789295
0.34584203 -0.21713999 -0.22652742
0.38996637 -0.17839992 -0.24665591
0.42150936 -0.20976891 -0.16332512
0.46647933 -0.16326812 -0.21249631
0.42838690 -0.25214309 -0.07417247
0.36299711 -0.25651810 -0.12277238
0.45099410 -0.09408276 -0.25554588
0.54482931 -0.13547173 -0.18272905
0.58854127 -0.10934549 -0.16526540
0.55529886 -0.02453262 -0.22963226
0.62301761 -0.09768718 -0.13024268
0.61372149 -0.13077247 -0.09886415
0.62605077 -0.12502041 -0.06222950
0.33400247 -0.14345482 -0.26532680
0.36339611 -0.09684492 -0.30148071
0.27847669 -0.19927266 -0.22866163
0.25736555 -0.08049933 -0.32551375
0.40851605 -0.05905958 -0.30583215
0.37191209 -0.00262075 -0.35211065
0.27089748 -0.02726477 -0.37368959
0.51040465 0.02216925 -0.27485219
0.46391547 0.05191809 -0.31397635
0.58858782 -0.01709207 -0.18254057
0.64871919 -0.04013159 -0.07196121
0.63957059 -0.01489742 -0.09495049
0.62780595 -0.09457473 -0.03860014
0.64193922 -0.04490916 -0.03667635
0.66316205 0.03652078 -0.03493388
0.60693008 0.05001177 -0.13623624
0.64683342 0.09063228 -0.06692985
0.63514912 0.12306257 -0.12732916
0.54559475 0.05034163 -0.22556019
0.59791988 0.10699171 -0.18661954
0.54898870 0.09043664 -0.23684257
0.51572359 0.09405355 -0.28672811
0.55398387 0.11652067 -0.21408416
0.52306324 0.11414891 -0.26983199
0.59560716 0.14148889 -0.15249789
0.52091837 0.13786857 -0.16946501
0.43752947 0.20503670 -0.17724000
0.48115373 0.15374875 -0.17247841
0.46634531 -0.31139988 0.06974281
0.47838736 -0.28903243 0.01111866
0.49158144 -0.27198303 0.05716965
0.37961179 -0.29867613 -0.05542818
0.50267929 -0.25123960 -0.00277871
0.40628791 -0.35481334 0.09015599
0.42404357 -0.32292777 0.17535047
0.38702276 -0.33245957 0.15965912
0.46395892 -0.28677353 0.13498367
0.46665058 -0.26309595 0.12659562
0.56358737 -0.14145836 0.00686777
0.48399952 -0.21950074 0.05849984
0.50683117 -0.17378306 0.04912353
0.53629875 -0.11012994 0.06737085
0.42586496 -0.19291233 0.12287360
0.40600204 -0.13201538 0.14044531
0.34469876 -0.31532446 0.23727100
0.38731354 -0.30016375 0.24937005
0.43450904 -0.28308588 0.20792104
0.38818511 -0.25772363 0.27385697
0.38572171 -0.18582250 0.21001689
0.33092380 -0.27651727 0.27467504
0.28179517 -0.29250765 0.24575086
0.37097895 -0.20119914 0.27309239
0.22459272 -0.25950313 0.25559273
0.36933777 -0.13995615 0.20990370
0.39238244 -0.14999062 0.15689251
0.32546052 -0.12688912 0.31055138
0.45937008 -0.09406735 0.11508672
0.51072329 -0.03238619 0.11643833
0.45859367 -0.03049564 0.16082276
0.38208818 -0.09014253 0.21180855
0.42823252 -0.02504883 0.19204392
0.33505806 -0.06888809 0.28504935
0.43802112 0.05498023 0.20234941
0.38149452 -0.00239546 0.25252366
0.41596365 0.08044471 0.23699576
0.60214412 -0.03483186 0.01012079
0.65282357 0.01736956 0.01414714
0.68101841 0.09123558 -0.01401503
0.66720116 0.08359105 0.02687138
0.64463520 0.07226989 0.07313943
0.54514921 0.01204622 0.10496277
0.63549978 0.13494647 -0.05039829
0.66998124 0.11554632 -0.01431673
0.64964724 0.11163676 0.02064290
0.63369179 0.12979776 0.09317737
0.58636796 0.11595064 0.14623246
0.63438255 0.13918950 0.06469797
0.58488774 0.15510708 0.02919697
0.55448681 0.17085172 -0.06883125
0.42847306 0.17561571 -0.08334200
0.45907915 0.17008546 -0.06389144
0.41967726 0.20117319 -0.13279687
0.51873428 0.18223147 0.02713949
0.46145225 0.18583298 -0.00820666
0.37463376 0.17495593 -0.04589377
0.49098563 0.04021451 0.16174625
0.52827924 0.08013842 0.16957073
0.53327292 0.14784484 0.23476686
0.56230712 0.16669677 0.21852536
0.58456033 0.14924049 0.16413605
0.47166899 0.13849092 0.25912240
0.48150340 0.18017794 0.25331423
0.55522931 0.18742405 0.20164785
0.53026301 0.19566803 0.19189256
0.58146238 0.17891026 0.13019143
0.45103395 0.21562129 0.10853108
0.48743168 0.19931011 0.15320811
0.35263512 0.18186247 -0.00315745
0.39508659 0.21451494 0.04820556
0.32205647 0.21964408 0.04461065
0.43137962 0.22042215 0.24730861
0.39225128 0.23889725 0.22451496
0.36553422 0.24226138 0.11048460
0.33540225 0.25828603 0.19522718
-0.12093219 -0.31293827 -0.31593102
-0.25550735 -0.26469254 -0.39860448
-0.13672511 -0.28854176 -0.35049903
-0.17613341 -0.26116654 -0.39458448
-0.27969322 -0.23141535 -0.42963070
-0.21360947 -0.18922180 -0.44041839
-0.27054590 -0.16468933 -0.47299013
-0.32310739 -0.16303392 -0.47534421
-0.37086040 -0.21354558 -0.45173579
-0.22315101 -0.09787164 -0.49419904
-0.02876787 -0.19645442 -0.37356547
0.04051038 -0.16291238 -0.35424155
-0.07343172 -0.15172039 -0.42035949
0.11093126 -0.11159601 -0.34379762
0.11000888 -0.05349295 -0.39099717
0.01129688 -0.07920216 -0.42612991
-0.09540863 -0.03445465 -0.51172876
-0.12790464 -0.08361362 -0.49690825
-0.14439167 -0.03082701 -0.53294492
-0.17880006 -0.14609748 -0.45648718
-0.23607586 -0.05398037 -0.50794560
-0.01341810 -0.01140598 -0.46406025
0.10544638 0.03250867 -0.44669306
0.01925348 0.05853378 -0.45837510
-0.06573617 0.06323781 -0.48292333
-0.03907409 0.11017765 -0.47700304
0.03747393 0.14932942 -0.49322262
-0.40508857 -0.15111910 -0.47442597
-0.34334457 -0.12391321 -0.48313457
-0.30004463 0.00530247 -0.46294498
-0.22361512 -0.01168245 -0.49745789
-0.17871585 -0.00979267 -0.52228564
-0.13845292 0.04414333 -0.50027817
-0.22304843 0.06730317 -0.42630455
-0.09800032 0.10210705 -0.47749242
-0.05337599 0.15937325 -0.46955538
-0.10794527 0.16866216 -0.43422022
-0.15332170 -0.30726624 -0.30098298
-0.20274961 -0.28544980 -0.24268423
-0.25870883 -0.26854435 -0.36985332
-0.25604632 -0.26178771 -0.28672943
-0.20351855 -0.27135330 -0.12453858
-0.26959264 -0.22576261 -0.17196727
-0.29292616 -0.22393128 -0.20475055
-0.30493289 -0.25230664 -0.28552511
-0.33022317 -0.25087345 -0.39687505
-0.34875631 -0.24650781 -0.33321276
-0.39527428 -0.21571353 -0.42470878
-0.35982430 -0.22532566 -0.22133268
-0.41499129 -0.20227942 -0.21843782
-0.42463139 -0.19984306 -0.31185883
-0.47449973 -0.15410402 -0.36954597
-0.31350332 -0.20321664 -0.05276151
-0.34443006 -0.20713215 -0.14309344
-0.38311604 -0.18307479 -0.08818796
-0.39683172 -0.19437231 -0.16295695
-0.47142273 -0.17332287 -0.25355065
-0.52208239 -0.12884666 -0.32679206
-0.50013632 -0.13517807 -0.24606967
-0.43470973 -0.14551204 -0.12404511
-0.47151241 -0.13822438 -0.18186687
-0.52934533 -0.13513552 -0.12606575
-0.43907386 -0.15899067 -0.44361717
-0.43204638 -0.05076374 -0.45878446
-0.34367710 -0.07211568 -0.48237377
-0.45217240 -0.12354031 -0.43482000
-0.42316553 -0.01566458 -0.45396888
-0.34997380 0.05939745 -0.39156324
-0.50167018 -0.07016865 -0.37442291
-0.48736036 -0.03373455 -0.39960712
-0.43984887 0.00905498 -0.38962650
-0.53336930 -0.11467182 -0.25871402
-0.55676192 -0.09213342 -0.28307852
-0.59679234 -0.09851777 -0.21365291
-0.60235387 -0.06857518 -0.22348806
-0.54535490 -0.05218610 -0.30211636
-0.53219682 -0.02813986 -0.28667432
-0.41740531 0.03475116 -0.34613568
-0.45591635 0.01966401 -0.29376161
-0.46988580 0.06444521 -0.17158988
-0.28845930 0.05004275 -0.42400283
-0.26806480 0.09164906 -0.41294608
-0.31297609 0.11454682 -0.36320212
-0.15946998 0.12363908 -0.43653947
-0.17254496 0.16520518 -0.42355132
-0.22689968 0.14516485 -0.40306190
-0.18619229 0.16988041 -0.38221169
-0.07227748 0.27366328 -0.38927305
-0.16475058 0.21218525 -0.36199012
-0.22025192 0.17567933 -0.31504044
-0.25453997 0.14392726 -0.32123727
-0.19224222 0.21292195 -0.27910352
-0.11593385 0.30068389 -0.26213163
-0.31505355 0.12202094 -0.28904220
-0.40107948 0.19311897 -0.03630624
-0.30733320 0.15131085 -0.24164778
-0.37831196 0.14106858 -0.15945089
-0.24217987 0.21557404 -0.18568654
-0.15927833 0.27638069 -0.19993556
-0.28541973 0.19827229 -0.16083956
-0.18599164 0.28238431 -0.11649521
0.19318116 -0.02496738 -0.36698857
0.26712003 0.03791267 -0.40073404
0.20335984 0.06583062 -0.42438811
0.29505134 0.11810344 -0.40956640
0.36583039 0.08057053 -0.34973669
0.44671559 0.11809150 -0.32482681
0.34724173 0.13752544 -0.36814407
0.23565723 0.21401156 -0.39587122
0.42250335 0.15030734 -0.32357529
0.36389440 0.19256757 -0.31629837
0.31105968 0.19222224 -0.33960778
0.27462971 0.23734260 -0.29270336
0.13449989 0.13125949 -0.44782117
0.18449418 0.14840037 -0.43464938
0.18355510 0.19107756 -0.43187198
0.12569614 0.22650741 -0.47629353
0.22308218 0.25158080 -0.35957569
0.24488273 0.24687061 -0.30043149
0.15714405 0.24941069 -0.40359914
0.10510370 0.25726923 -0.45923081
0.42531875 0.17934194 -0.27776408
0.40413961 0.25606698 -0.21265008
0.37928122 0.25908506 -0.24169612
0.07972401 0.20332067 -0.50015634
0.05750359 0.22979827 -0.50120884
-0.03556387 0.20631541 -0.45612028
0.02558868 0.26626077 -0.44478267
0.05596994 0.29907283 -0.36166084
0.13100204 0.26753122 -0.35601771
0.24620792 0.26465920 -0.24728000
0.26316175 0.29649886 -0.18229808
0.17756973 0.27239534 -0.29215762
0.07982707 0.29615554 -0.27521697
0.14532143 0.29843441 -0.24736077
0.19582108 0.29338601 -0.18332171
0.18055390 0.29712933 -0.12919903
0.22365232 0.29135376 -0.12155082
0.09057721 0.31584841 -0.15907609
0.06496671 0.31297189 -0.22849463
0.28434756 0.22193225 -0.02371645
0.33132648 0.19972154 -0.05872594
0.28148839 0.23579001 -0.07065658
0.22458398 0.24568117 0.05000171
0.20780347 0.24337240 -0.06588247
0.18794948 0.28543070 0.11996363
0.15757556 0.27463767 0.02676604
0.15509486 0.30018941 -0.09117665
0.15913832 0.27927646 0.08580595
0.00182976 0.34027395 -0.17378652
0.01251319 0.34058315 -0.01936125
0.09626442 0.30547327 0.00440381
-0.05361617 0.37445620 -0.09817966
0.35362056 0.23651405 -0.13579169
0.32875493 0.28013089 -0.20548427
0.29203007 0.29010716 -0.16121796
0.28309745 0.27305305 0.15585628
-0.01376935 0.29912448 -0.39275473
-0.04699331 0.30707282 -0.36208495
0.00188568 0.31933683 -0.27661389
-0.08386321 0.32884011 -0.27858850
-0.06368271 0.35395479 -0.22607991
-0.06727163 0.36407056 -0.16986272
-0.12059782 0.35201082 -0.12117918
-0.09995267 0.37199003 -0.08920287
0.00690565 -0.26115113 0.22849050
-0.07799571 -0.23231064 0.20361805
-0.11133923 -0.23272355 0.26190814
-0.01943381 -0.26278189 0.29514471
-0.05286687 -0.25116065 0.36146748
0.09439436 -0.25233337 0.26322868
0.15608546 -0.22047289 0.32073873
0.06760832 -0.24673085 0.31238368
-0.03968465 -0.24336138 0.41320720
0.02369690 -0.24461219 0.33814847
0.14114924 -0.19898807 0.36767840
0.07028391 -0.21549158 0.37611869
-0.12850681 -0.23445454 0.14969288
-0.19241597 -0.21437749 0.09257039
-0.22315396 -0.19577396 0.11045099
-0.15291402 -0.21939223 0.17484935
-0.16425721 -0.21265459 0.22898699
-0.21293227 -0.20662186 0.18650857
-0.28312260 -0.18098348 0.17802146
-0.09846205 -0.23008808 0.31801865
-0.17201076 -0.21731788 0.31475711
-0.16961651 -0.21622850 0.36562890
-0.11626229 -0.23937514 0.41922891
-0.06293076 -0.21895283 0.46988106
0.03244279 -0.19154023 0.43019459
0.07054983 -0.12938182 0.44948861
-0.03710283 -0.19140546 0.49722344
0.01779695 -0.16912740 0.50259012
0.03175203 -0.14366841 0.51243091
-0.25616652 -0.17467089 0.27214801
-0.34939218 -0.15411624 0.25547254
-0.30133444 -0.16227613 0.40907282
-0.36573368 -0.13680108 0.37723246
-0.14784007 -0.22757237 0.49157667
-0.10406762 -0.19579217 0.51281828
-0.20396115 -0.21113107 0.48122093
-0.26967838 -0.17904036 0.47353381
-0.20582636 -0.19026843 0.51294851
-0.17578369 -0.15887205 0.53567612
-0.27390057 -0.16000935 0.49744087
-0.21076174 -0.12462910 0.54484284
-0.07602742 -0.18068606 0.53742939
-0.13087706 -0.14062996 0.56912768
-0.03206927 -0.16039957 0.53597826
-0.00780849 -0.09477013 0.52883482
-0.10388583 -0.11807750 0.58130473
-0.03305751 -0.03796417 0.57210749
-0.15980862 -0.07414296 0.56673187
-0.06242024 -0.01496009 0.56641555
-0.11294751 -0.00516909 0.54793000
-0.33159927 -0.12388258 0.42334372
-0.31019315 -0.10725974 0.44221181
-0.25691333 -0.07293237 0.50989795
-0.38837826 -0.08914886 0.40434813
-0.28912181 -0.04472785 0.43428537
-0.25290436 -0.01204305 0.47710630
-0.32394701 -0.01297132 0.39632222
-0.18621761 -0.02162364 0.53305054
-0.19364756 0.03235462 0.48379898
-0.28717920 0.03305321 0.43426529
-0.23612574 0.08431889 0.42377052
-0.11547592 0.08494664 0.48579586
-0.17096825 0.09961029 0.44642615
-0.14152481 0.12493725 0.43006361
0.27124929 -0.21253783 0.27560860
0.22709094 -0.21166734 0.30441821
0.33631104 -0.18330930 0.29738614
0.28690916 -0.13688889 0.33949393
0.20965919 -0.18889676 0.37293980
0.27413240 -0.09219463 0.39189652
0.22567469 -0.12389385 0.40056407
0.29270416 -0.06715812 0.38274699
0.32251850 -0.03791001 0.30452764
0.34149659 0.07236295 0.27599621
0.31550261 0.03657013 0.30493987
0.26578125 0.00712981 0.37400350
0.28989857 0.09801462 0.34219113
0.26414388 0.07868708 0.39857328
0.08747650 -0.11494648 0.45466870
0.22306465 -0.03351589 0.44063205
0.17727688 -0.07299266 0.43596891
0.19534086 -0.00089314 0.45691064
0.11587881 -0.03557944 0.44816890
0.06109349 -0.08390466 0.47462928
0.07548586 -0.01645795 0.50669962
0.12834072 0.01538791 0.49548352
0.21492431 0.04994650 0.44458464
0.22869653 0.12905440 0.37957317
0.30264890 0.17997938 0.35019234
0.17722727 0.04599998 0.48563540
0.14603315 0.13395452 0.43706307
0.12180217 0.05881266 0.49348891
0.21460724 0.18225624 0.39266205
0.24059011 0.23478410 0.35103676
0.29685324 0.22656365 0.32494467
0.17067608 0.25585353 0.31332642
0.23833255 0.25867382 0.25183848
0.20719786 0.26284939 0.21618134
0.17103319 0.23076046 0.38246027
0.08696005 0.12545829 0.46259376
0.13261719 0.16288565 0.44396287
0.25946248 0.21642670 0.36267868
0.19577572 0.20002280 0.40233752
0.11530052 0.18540747 0.46728194
0.11407417 0.20265980 0.45385292
0.05877718 0.21986555 0.42242503
0.08406762 0.23932324 0.35505021
0.00210262 0.23545901 0.40480390
0.37859908 0.14615850 0.29008862
0.40054688 0.17692281 0.27405825
0.35423216 0.22367416 0.24486753
0.29852769 0.24722122 0.22704245
0.36314669 0.18908595 0.28812242
0.00910084 0.01297590 0.57220888
0.08628503 0.05005715 0.53710788
0.05340024 0.07946651 0.56449795
-0.02075641 0.02708241 0.57347739
0.00116931 0.10133123 0.55556440
-0.06182175 0.12695965 0.49009007
-0.11246158 0.17745675 0.39326611
-0.02866692 0.18272707 0.39735824
0.01848973 0.20242578 0.44700351
-0.01957967 0.23096600 0.38946488
0.00117429 0.14828975 0.51637292
0.03810229 0.17808576 0.48223484
-0.08506645 0.05670694 0.51256567
-0.06943375 0.11248703 0.51442927
0.05152215 0.11643247 0.52444780
0.06072532 0.16120659 0.49428797
-0.33129156 -0.16256626 0.04788690
-0.35952902 -0.14597292 -0.02272237
-0.41478139 -0.14133865 0.03659818
-0.28543702 -0.18107037 0.07288250
-0.32249558 -0.17801620 0.14709507
-0.36135599 -0.16428873 0.13343020
-0.42022678 -0.14200793 -0.05105690
-0.48327562 -0.13541293 -0.04293780
-0.53736943 -0.12539494 -0.07428292
-0.48807761 -0.11474305 0.06749987
-0.54444748 -0.09400912 -0.01285698
-0.44402650 -0.12468976 0.12756805
-0.60535932 -0.08243653 -0.12664442
-0.61077994 -0.05373817 -0.05503563
-0.57321280 -0.03217193 0.01017731
-0.40636012 -0.13435519 0.20686013
-0.49510959 -0.10535250 0.28564227
-0.41689804 -0.12384647 0.30368251
-0.51872647 -0.08765186 0.22590038
-0.49952310 -0.09793880 0.13455470
-0.53240663 -0.08070160 0.06970056
-0.59268695 -0.02797500 0.08555371
-0.56330109 -0.05663182 0.12292293
-0.56744951 -0.05889763 0.20435996
-0.61124790 -0.00283606 0.17666325
-0.66183692 0.01793414 0.11995200
-0.63399369 -0.03424327 -0.12438018
-0.54925543 0.03428269 -0.12611456
-0.52261180 0.07531120 -0.08084140
-0.62099642 -0.00424050 -0.12381974
-0.62251276 0.01051250 -0.03150456
-0.62148529 0.02961810 -0.05182017
-0.59557396 0.08484375 0.02817917
-0.64851594 0.04836503 0.01670858
-0.66422480 0.03497292 0.05815821
-0.57560557 0.13176432 0.09641462
-0.66969591 0.05330278 0.10464372
-0.59510481 0.12304211 0.12579904
-0.48624972 0.13895421 -0.01163536
-0.46598247 0.16997258 0.02566581
-0.45991984 0.21495630 0.08621906
-0.34685171 0.21851283 -0.05266658
-0.31186631 0.24138457 -0.03375106
-0.25399366 0.29749000 0.03167548
-0.55049264 0.17545180 0.14218794
-0.48444992 0.20725991 0.16027535
-0.44079435 0.25516954 0.12975371
-0.35109609 0.25824592 0.04612592
-0.32470343 0.31787097 0.12623389
-0.37156242 0.29120857 0.10339054
-0.37746766 0.28812414 0.18481939
-0.43106672 0.25482655 0.18829271
-0.31476608 0.30270824 0.18171664
-0.27532238 0.34382001 0.11625250
-0.45462650 -0.10796423 0.36371022
-0.53731835 -0.06717059 0.28212988
-0.50940382 -0.07591498 0.33718109
-0.56214541 -0.02166206 0.25869364
-0.44840333 -0.07786883 0.38648188
-0.51121867 -0.01739082 0.31676000
-0.57771689 -0.03829650 0.23224956
-0.52761692 0.01274155 0.26601306
-0.54564887 0.05870923 0.24996400
-0.63137245 0.03771066 0.17943516
-0.59524214 0.09614995 0.17023134
-0.53862500 0.12007271 0.23127556
-0.40263987 -0.04018081 0.37081900
-0.38342711 0.05409411 0.33211756
-0.45505881 0.01103333 0.31167454
-0.40041217 0.10303813 0.28459814
-0.34367067 0.09405773 0.36026230
-0.25590977 0.21832548 0.31477776
-0.31422940 0.12687920 0.36471555
-0.23425645 0.18139203 0.36327863
-0.19553281 0.14183077 0.40177619
-0.46244931 0.06166724 0.25519383
-0.42669278 0.14273135 0.24269186
-0.54427135 0.14893484 0.19578545
-0.44188204 0.19932848 0.20618868
-0.35980585 0.18703552 0.25584799
-0.36942121 0.14251347 0.29657394
-0.30066732 0.21081272 0.29265487
-0.29041585 0.26263955 0.25696096
-0.32846043 0.26414302 0.22229058
-0.65346271 0.06207177 0.14150728
0.08463218 0.28876415 0.07862373
0.08954616 0.27962708 0.13301760
0.13696861 0.25267744 0.21023494
0.17309473 0.28612617 0.16867295
0.02688075 0.25328976 0.20157282
0.00338932 0.29049736 0.11945543
-0.11385714 0.35211742 -0.01899607
-0.07383467 0.32461527 0.09025685
-0.01921651 0.33306235 0.01772669
-0.17162016 0.34739920 0.01715887
-0.21448362 0.32977769 0.06247582
-0.10753001 0.31901211 0.13144667
-0.04909960 0.28529173 0.15945163
-0.00298146 0.24275002 0.27396712
-0.08397076 0.26915085 0.25878248
-0.10064544 0.29138041 0.21916975
-0.02532432 0.24881087 0.33803180
-0.08640732 0.25791717 0.34376296
0.05244778 0.24543169 0.23560487
0.10516058 0.25244725 0.30092883
0.03985951 0.24735256 0.33796555
-0.11969966 0.30371839 0.17785116
-0.21048822 0.32718745 0.13108489
-0.24431306 0.29115805 0.22659592
-0.18638082 0.27133840 0.26623055
-0.14037694 0.34392384 -0.03675732
-0.18426676 0.22137153 0.34546027
-0.04596264 0.18871766 0.37550387
-0.04852393 0.23031034 0.36677048
