0.36840332 -0.33206046 -0.13195218
0.23368356 -0.38067722 -0.21082564
0.35424316 -0.30036905 -0.19313498
0.24215323 -0.29434201 -0.25702825
0.12335373 -0.30422425 -0.30779925
0.10235422 -0.36144030 -0.25080100
0.01339901 -0.36119026 -0.32614702
0.01997558 -0.28533202 -0.37925917
-0.08845141 -0.37403351 -0.35392177
0.19301963 -0.32554066 -0.26776010
0.19759214 -0.41024023 -0.18275118
0.27798241 -0.23373765 -0.28489473
0.18754868 -0.23725638 -0.30959946
0.09438990 -0.23824926 -0.37025964
0.24925226 -0.18400122 -0.33932304
0.19377543 -0.13053283 -0.37949365
0.41816834 -0.41678819 0.06180538
0.34905463 -0.41310623 -0.02074592
0.42905292 -0.40932301 0.01383666
0.25838450 -0.42511925 0.00078563
0.30016962 -0.37359166 0.09006236
0.37388477 -0.36730114 0.13926753
0.31372023 -0.35560039 0.20432574
0.19363344 -0.35036325 0.16672742
0.23196210 -0.31644189 0.25350216
-0.19688088 -0.37375867 -0.23649248
-0.11236205 -0.38809711 -0.30384099
-0.10206918 -0.42310929 -0.19317713
-0.11942689 -0.40497839 -0.09530205
-0.19394371 -0.35655802 -0.10786512
0.06812362 -0.42859811 -0.16010047
0.12683949 -0.41212481 -0.16881503
0.05944263 -0.43908566 -0.12808353
0.18677504 -0.41714388 -0.09632224
0.16372041 -0.41236472 -0.07143215
0.06333611 -0.43033817 -0.04663301
0.12306096 -0.38090196 0.01782957
0.29666248 -0.39075118 -0.10892417
0.23110239 -0.38291201 0.06375282
-0.01175439 -0.42293724 -0.17314124
-0.02640885 -0.40848026 -0.23403324
-0.05134528 -0.40442136 -0.05841381
0.01230633 -0.38096845 0.04545401
-0.07064679 -0.37190264 0.01095775
-0.01305651 -0.35185081 0.11124566
0.13677642 -0.34644973 0.09638307
0.04334110 -0.31919438 0.16302241
-0.02974488 -0.30397215 0.17765580
0.11417495 -0.31064606 0.19098328
0.16929056 -0.30586466 0.25797033
-0.21011548 -0.33593878 0.01647083
-0.14155573 -0.34339261 0.07750303
-0.15101241 -0.31945175 0.12235412
-0.35086364 -0.24252321 0.00104596
-0.25797591 -0.29403040 0.04961329
0.56917614 -0.29477575 -0.04525143
0.60261577 -0.26296201 -0.09641152
0.62563407 -0.26973358 -0.04776673
0.67442781 -0.21651345 -0.08237166
0.40578189 -0.25173977 -0.26926377
0.45774332 -0.20564382 -0.29272673
0.49520916 -0.24354129 -0.19476624
0.54800922 -0.18798919 -0.25240844
0.50371569 -0.29454949 -0.09008824
0.42637801 -0.29938936 -0.14732015
0.52943337 -0.10585006 -0.30230537
0.64046460 -0.15526949 -0.21711692
0.69203949 -0.12451983 -0.19635397
0.65238261 -0.02381390 -0.27124900
0.73274064 -0.11108343 -0.15495244
0.72199595 -0.15051915 -0.11834053
0.73662764 -0.14411038 -0.07505711
0.39149004 -0.16441858 -0.31421232
0.42596865 -0.10885365 -0.35635537
0.32624573 -0.23088484 -0.27147946
0.30069280 -0.08964511 -0.38424554
0.47908503 -0.06408640 -0.36117285
0.43557486 0.00297894 -0.41493258
0.31636354 -0.02622934 -0.44049889
0.59914172 0.03167550 -0.32394859
0.54407054 0.06711510 -0.36959106
0.69176030 -0.01551204 -0.21570759
0.76307762 -0.04383359 -0.08567590
0.75211167 -0.01380964 -0.11243371
0.73865145 -0.10851794 -0.04688217
0.75517452 -0.04990350 -0.04406161
0.77997810 0.04628292 -0.04101175
0.71336144 0.06322657 -0.16029048
0.76052701 0.11045132 -0.07816909
0.74640340 0.14935280 -0.14899214
0.64077580 0.06446738 -0.26558214
0.70235503 0.13100892 -0.21898809
0.64452910 0.11191380 -0.27832338
0.60516268 0.11664154 -0.33712900
0.65047258 0.14245395 -0.25122458
0.61382401 0.14020307 -0.31695285
0.69967330 0.17129290 -0.17839952
0.61148268 0.16699626 -0.19823712
0.51282424 0.24608716 -0.20635726
0.56447911 0.18562926 -0.20149717
0.54906207 -0.36611581 0.07883857
0.56308645 -0.33899483 0.00985254
0.57869995 -0.31936899 0.06440738
0.44630277 -0.34985426 -0.06837960
0.59157276 -0.29411265 -0.00605460
0.47839257 -0.41777441 0.10253835
0.49951071 -0.38103420 0.20345548
0.45583564 -0.39221984 0.18488035
0.54634678 -0.33775654 0.15623374
0.54944098 -0.30973879 0.14655411
0.66317797 -0.16452092 0.00640421
0.56959337 -0.25746861 0.06664539
0.59634668 -0.20335962 0.05606889
0.63103294 -0.12831986 0.07829747
0.50113070 -0.22699934 0.14306684
0.47754583 -0.15544917 0.16453326
0.40607336 -0.37304237 0.27675095
0.45621842 -0.35518545 0.29121464
0.51178622 -0.33439466 0.24235223
0.45724642 -0.30537364 0.32056800
0.45392579 -0.21979904 0.24611418
0.38970101 -0.32775643 0.32146880
0.33173692 -0.34637988 0.28731212
0.43676633 -0.23870306 0.32041377
0.26418504 -0.30774012 0.29942206
0.43452135 -0.16571631 0.24650656
0.46151724 -0.17687789 0.18384950
0.38291028 -0.15164009 0.36558217
0.54029250 -0.11020369 0.13498363
0.60069913 -0.03730216 0.13715611
0.53931069 -0.03575698 0.18966749
0.44939670 -0.10695115 0.24929982
0.50356764 -0.02978558 0.22664048
0.39403552 -0.08287617 0.33609372
0.51487768 0.06457051 0.23978040
0.44850042 -0.00389321 0.29843301
0.48895955 0.09415070 0.28092772
0.70832211 -0.03866172 0.01140073
0.76801163 0.02305944 0.01662827
0.80100340 0.11062251 -0.01584247
0.78481179 0.10109971 0.03240363
0.75833791 0.08709270 0.08687397
0.64121950 0.01540423 0.12403533
0.74699020 0.16249232 -0.05804605
0.78787398 0.13925965 -0.01586981
0.76398396 0.13418163 0.02540218
0.74527961 0.15468287 0.11123140
0.68962520 0.13761893 0.17385416
0.74603164 0.16616295 0.07777442
0.68743688 0.18519863 0.03624011
0.65129036 0.20483837 -0.07920856
0.50250244 0.21020916 -0.09595469
0.53869992 0.20358007 -0.07311981
0.49192482 0.24093033 -0.15398571
0.60930115 0.21699274 0.03424040
0.54164481 0.22155637 -0.00721744
0.43910334 0.20882554 -0.05166839
0.57739162 0.04781606 0.19150780
0.62130684 0.09488617 0.20101754
0.62714666 0.17403252 0.27877840
0.66134953 0.19658023 0.25974658
0.68745106 0.17664458 0.19530825
0.55452496 0.16253270 0.30761102
0.56603688 0.21185166 0.30121684
0.65284967 0.22122766 0.24016353
0.62331784 0.23100471 0.22885548
0.68365061 0.21207441 0.15562029
0.52951884 0.25526279 0.13092424
0.57266718 0.23560134 0.18331926
0.41322598 0.21641962 -0.00106440
0.46336147 0.25450522 0.05986211
0.37711844 0.26036406 0.05590320
0.50671625 0.25921926 0.29472604
0.46047282 0.28121868 0.26817483
0.42858711 0.28643024 0.13375381
0.39317435 0.30423173 0.23403335
-0.14495243 -0.36509749 -0.37461704
-0.30410704 -0.30763209 -0.47129604
-0.16373193 -0.33592674 -0.41506532
-0.21049289 -0.30329612 -0.46669027
-0.33284056 -0.26802891 -0.50736851
-0.25504377 -0.21797577 -0.51982993
-0.32239607 -0.18875344 -0.55772173
-0.38434672 -0.18695131 -0.56046760
-0.44058543 -0.24698332 -0.53297186
-0.26673558 -0.10955537 -0.58212638
-0.03676128 -0.22672749 -0.44146484
0.04502204 -0.18714476 -0.41851661
-0.08970100 -0.17353915 -0.49607876
0.12794547 -0.12654509 -0.40577582
0.12654018 -0.05743226 -0.46075922
0.01007142 -0.08758535 -0.50219208
-0.11620060 -0.03412354 -0.60242379
-0.15436925 -0.09242119 -0.58544892
-0.17409280 -0.02978615 -0.62732488
-0.21411896 -0.16678792 -0.53838491
-0.28208122 -0.05763567 -0.59786642
-0.01943985 -0.00724564 -0.54607290
0.12078175 0.04465142 -0.52553850
0.01894710 0.07527377 -0.53871197
-0.08138456 0.08091193 -0.56735718
-0.05007537 0.13625313 -0.55993813
0.04014380 0.18287489 -0.57887435
-0.48116931 -0.17318031 -0.55900884
-0.40843067 -0.14077871 -0.56909323
-0.35765040 0.01160081 -0.54384965
-0.26749584 -0.00782782 -0.58502287
-0.21464442 -0.00519245 -0.61438560
-0.16724220 0.05831463 -0.58787411
-0.26688993 0.08453935 -0.50010425
-0.11960997 0.12657726 -0.56040031
-0.06705546 0.19415021 -0.55058831
-0.13139634 0.20454004 -0.50860512
-0.18312398 -0.35868070 -0.35685813
-0.24145451 -0.33378580 -0.28758219
-0.30778864 -0.31247741 -0.43734598
-0.30444488 -0.30548114 -0.33919808
-0.24200842 -0.31853557 -0.14807960
-0.32022405 -0.26436770 -0.20332567
-0.34787986 -0.26186568 -0.24185626
-0.36215317 -0.29446542 -0.33755115
-0.39228463 -0.29151657 -0.46883994
-0.41401395 -0.28721374 -0.39366126
-0.46928659 -0.24993290 -0.50107372
-0.42686141 -0.26355332 -0.26131213
-0.49203542 -0.23658977 -0.25750181
-0.50362456 -0.23257793 -0.36763588
-0.56280649 -0.17811655 -0.43503287
-0.37185869 -0.23930925 -0.06221031
-0.40856966 -0.24296130 -0.16878346
-0.45409364 -0.21539268 -0.10374829
-0.47045276 -0.22782534 -0.19197585
-0.55879748 -0.20215711 -0.29841843
-0.61889136 -0.14892961 -0.38414079
-0.59275061 -0.15730442 -0.28906268
-0.51520652 -0.17071186 -0.14531478
-0.55876559 -0.16156052 -0.21343721
-0.62686890 -0.15874395 -0.14739724
-0.52114618 -0.18289261 -0.52262074
-0.51322961 -0.05503885 -0.53931236
-0.40896365 -0.07966234 -0.56758356
-0.53672904 -0.14125139 -0.51180112
-0.50282073 -0.01358262 -0.53315997
-0.41653836 0.07440224 -0.45890132
-0.59510976 -0.07909653 -0.43974021
-0.57839352 -0.03575797 -0.46906167
-0.52245867 0.01472143 -0.45692438
-0.63212645 -0.13307446 -0.30359709
-0.65973407 -0.10625131 -0.33214799
-0.70679331 -0.11469554 -0.25012508
-0.71348792 -0.07932106 -0.26142308
-0.64652032 -0.05889261 -0.35413685
-0.63103253 -0.03061348 -0.33558547
-0.49589643 0.04458297 -0.40542844
-0.54114509 0.02611117 -0.34361967
-0.55747771 0.07741345 -0.19892992
-0.34405404 0.06397823 -0.49733582
-0.32000762 0.11297093 -0.48398384
-0.37300792 0.13929354 -0.42477712
-0.19206111 0.15131006 -0.51170814
-0.20760316 0.20016757 -0.49582443
-0.27159026 0.17616381 -0.47171199
-0.22358955 0.20517085 -0.44695437
-0.08948173 0.32807398 -0.45435566
-0.19835980 0.25488821 -0.42268968
-0.26361686 0.21110572 -0.36755571
-0.30396661 0.17361836 -0.37517533
-0.23060010 0.25472441 -0.32474396
-0.14071412 0.35831684 -0.30394018
-0.37524620 0.14726691 -0.33716959
-0.47622439 0.22791699 -0.03796553
-0.36608434 0.18126106 -0.28098133
-0.44962296 0.16800007 -0.18387213
-0.28920949 0.25663811 -0.21438512
-0.19162083 0.32880628 -0.23067681
-0.34017584 0.23576804 -0.18513119
-0.22294341 0.33480752 -0.13209891
0.22466654 -0.02375528 -0.43224469
0.31168616 0.05103732 -0.47160482
0.23627749 0.08406728 -0.49898651
0.34436658 0.14583738 -0.48114994
0.42822355 0.10106607 -0.41124991
0.52357048 0.14525101 -0.38162440
0.40598127 0.16839220 -0.43220237
0.27404729 0.25866058 -0.46372050
0.49488559 0.18315490 -0.37970746
0.42568851 0.23281159 -0.37046570
0.36319983 0.23250695 -0.39775631
0.32026964 0.28509393 -0.34184295
0.15478326 0.16133380 -0.52570885
0.21380641 0.18155880 -0.51014388
0.21249601 0.23185998 -0.50629324
0.14403856 0.27401987 -0.55817765
0.25914437 0.30250263 -0.42039061
0.28508586 0.29631197 -0.35076967
0.18125208 0.30024731 -0.47223914
0.11966863 0.31001371 -0.53765506
0.49827120 0.21692461 -0.32528621
0.47327653 0.30664638 -0.24752016
0.44382584 0.31046054 -0.28167629
0.08981319 0.24683531 -0.58645707
0.06349934 0.27800605 -0.58733737
-0.04613344 0.24945183 -0.53420991
0.02587074 0.32026017 -0.52024257
0.06187774 0.35810408 -0.42186657
0.15046521 0.32099029 -0.41579425
0.28676945 0.31672329 -0.28781685
0.30681503 0.35357657 -0.21076551
0.20564754 0.32617486 -0.34051186
0.09026320 0.35373551 -0.31992790
0.16757330 0.35621962 -0.28726625
0.22736441 0.34969783 -0.21185848
0.20950343 0.35340080 -0.14797877
0.26039615 0.34663722 -0.13911857
0.10316071 0.37560177 -0.18268451
0.07279889 0.37295550 -0.26459438
0.33249959 0.26377037 -0.02464933
0.38787964 0.23814513 -0.06627610
0.32893044 0.28065816 -0.07984547
0.26211852 0.29072106 0.06272487
0.24200633 0.28933445 -0.07395700
0.21896018 0.33673695 0.14591379
0.18285823 0.32497242 0.03589258
0.17954440 0.35648233 -0.10300449
0.18487234 0.32975990 0.10558812
-0.00159545 0.40436354 -0.19955762
0.01140616 0.40291288 -0.01738557
0.11041509 0.36146966 0.01002016
-0.06690103 0.44362977 -0.10982919
0.41385743 0.28250730 -0.15685745
0.38420564 0.33469853 -0.23854811
0.34103703 0.34587610 -0.18613462
0.33131510 0.32197022 0.18789032
-0.02050048 0.35833746 -0.45834479
-0.05963386 0.36722279 -0.42203569
-0.00181184 0.38079938 -0.32116327
-0.10303263 0.39184922 -0.32304260
-0.07913470 0.42086107 -0.26095632
-0.08322824 0.43218121 -0.19443473
-0.14599629 0.41720983 -0.13698843
-0.12163220 0.44042838 -0.09911159
0.00726203 -0.31000283 0.26801267
-0.09306157 -0.27592340 0.23923068
-0.13234918 -0.27720916 0.30819485
-0.02369040 -0.31283912 0.34670663
-0.06297415 -0.29994109 0.42526317
0.11046649 -0.29977331 0.30894464
0.18335834 -0.26265684 0.37699553
0.07900596 -0.29382855 0.36703727
-0.04726291 -0.29131895 0.48630962
0.02731453 -0.29171830 0.39757898
0.16580121 -0.23790330 0.43267128
0.08229507 -0.25772050 0.44252864
-0.15286960 -0.27800667 0.17573440
-0.22843280 -0.25382018 0.10869127
-0.26472822 -0.23219503 0.13007601
-0.18160522 -0.26056412 0.20567065
-0.19489679 -0.25333631 0.26962429
-0.25248715 -0.24582857 0.21977969
-0.33539769 -0.21573971 0.21016265
-0.11691634 -0.27471447 0.37430170
-0.20378068 -0.25981161 0.37085983
-0.20085993 -0.25916195 0.43087208
-0.13766173 -0.28693762 0.49368429
-0.07465388 -0.26328722 0.55353194
0.03767833 -0.23021713 0.50675255
0.08257826 -0.15694357 0.53013736
-0.04415170 -0.23099162 0.58606350
0.02059540 -0.20460522 0.59249139
0.03694825 -0.17466491 0.60440254
-0.30329493 -0.20925285 0.32125908
-0.41344488 -0.18505073 0.30216563
-0.35627183 -0.19636245 0.48312256
-0.43246117 -0.16610123 0.44610068
-0.17470539 -0.27392840 0.57924873
-0.12315407 -0.23654625 0.60464811
-0.24103047 -0.25459900 0.56736845
-0.31874913 -0.21683271 0.55892819
-0.24321871 -0.23032027 0.60512882
-0.20783409 -0.19351432 0.63218486
-0.32363364 -0.19464540 0.58730775
-0.24914579 -0.15331385 0.64346611
-0.09004462 -0.21898317 0.63370895
-0.15475255 -0.17223549 0.67170751
-0.03825166 -0.19489849 0.63213217
-0.00983225 -0.11730294 0.62440419
-0.12296528 -0.14570858 0.68627137
-0.03960875 -0.05083022 0.67616707
-0.18917929 -0.09384128 0.66984218
-0.07434896 -0.02368084 0.66984856
-0.13405389 -0.01212149 0.64820707
-0.39208892 -0.15134150 0.50049877
-0.36681768 -0.13191554 0.52284384
-0.30383882 -0.09200194 0.60300922
-0.45921695 -0.11028314 0.47864679
-0.34215370 -0.05795130 0.51419872
-0.29937208 -0.01974632 0.56503457
-0.38346159 -0.02012357 0.46991307
-0.22052272 -0.03156875 0.63069206
-0.22962110 0.03268626 0.57328671
-0.34009951 0.03382944 0.51509207
-0.28004190 0.09461056 0.50320458
-0.13748090 0.09496350 0.57601243
-0.20311354 0.11260122 0.52993882
-0.16850592 0.14275734 0.51085603
0.31909952 -0.25243792 0.32350755
0.26707453 -0.25190645 0.35758647
0.39588109 -0.21802208 0.34931681
0.33757374 -0.16385862 0.39971665
0.24665558 -0.22588196 0.43873733
0.32246065 -0.11178336 0.46215650
0.26548266 -0.14943105 0.47204480
0.34431407 -0.08211946 0.45150152
0.37913951 -0.04658840 0.35955095
0.40113759 0.08394480 0.32716262
0.37069586 0.04127429 0.36087963
0.31232265 0.00562984 0.44221106
0.34040755 0.11322157 0.40556565
0.31018230 0.08971635 0.47204649
0.10248815 -0.13992341 0.53641230
0.26215529 -0.04329503 0.52046210
0.20830904 -0.08991805 0.51458210
0.22942142 -0.00506481 0.54010808
0.13570702 -0.04613872 0.52961504
0.07135218 -0.10359320 0.56038427
0.08823805 -0.02436695 0.59893042
0.15040277 0.01351481 0.58604491
0.25234070 0.05510930 0.52609038
0.26815692 0.14928150 0.45033741
0.35527527 0.20995735 0.41600284
0.20804363 0.04989070 0.57456160
0.17081736 0.15412740 0.51836282
0.14262412 0.06474289 0.58411735
0.25143674 0.21186857 0.46642756
0.28184378 0.27439675 0.41781503
0.34819263 0.26517284 0.38677394
0.19916183 0.29947922 0.37375677
0.27880949 0.30373898 0.30107695
0.24200445 0.30898350 0.25907373
0.19984041 0.26903844 0.45501256
0.10123850 0.14366058 0.54856217
0.15491028 0.18812735 0.52686930
0.30423263 0.25268856 0.43129519
0.22921126 0.23268427 0.47810987
0.13449004 0.21442328 0.55474907
0.13294359 0.23489305 0.53906155
0.06752606 0.25537807 0.50233459
0.09715651 0.27926227 0.42304829
0.00060685 0.27388352 0.48192048
0.44480681 0.17098711 0.34451354
0.47053057 0.20752148 0.32591972
0.41564915 0.26286435 0.29212633
0.34988511 0.29073349 0.27148575
0.42645156 0.22158039 0.34267548
0.00997131 0.00940455 0.67679614
0.10086393 0.05377401 0.63554531
0.06204945 0.08806409 0.66830826
-0.02535040 0.02594051 0.67859459
0.00028220 0.11383370 0.65825272
-0.07430338 0.14467418 0.58149773
-0.13449885 0.20523354 0.46799657
-0.03564091 0.21162900 0.47263888
0.02014059 0.23442687 0.53125280
-0.02502196 0.26867774 0.46381497
0.00006561 0.16972314 0.61256379
0.04344348 0.20539236 0.57255286
-0.10142729 0.06142839 0.60718352
-0.08317909 0.12725192 0.61001474
0.05958563 0.13217293 0.62156606
0.07023367 0.18537992 0.58646768
-0.39263055 -0.19255149 0.05704496
-0.42622241 -0.17226480 -0.02602077
-0.49127129 -0.16767460 0.04415329
-0.33840609 -0.21451594 0.08624223
-0.38190013 -0.21192767 0.17385022
-0.42790809 -0.19572662 0.15801860
-0.49792826 -0.16744262 -0.05926400
-0.57233858 -0.15990518 -0.04936027
-0.63625103 -0.14788358 -0.08612953
-0.57767892 -0.13682340 0.08111522
-0.64457434 -0.11161363 -0.01323753
-0.52562374 -0.14916725 0.15184630
-0.71676481 -0.09682723 -0.14726982
-0.72304237 -0.06381402 -0.06241859
-0.67853874 -0.03898253 0.01466878
-0.48086360 -0.16137558 0.24513488
-0.58542681 -0.12836489 0.33860826
-0.49302948 -0.15012388 0.35952285
-0.61347115 -0.10682503 0.26837561
-0.59110606 -0.11783694 0.16050105
-0.63009834 -0.09685997 0.08418536
-0.70135951 -0.03496028 0.10377192
-0.66648477 -0.06912262 0.14743768
-0.67113125 -0.07281709 0.24341568
-0.72309315 -0.00646209 0.21157427
-0.78302503 0.01856414 0.14506641
-0.75062728 -0.04006660 -0.14401624
-0.65091980 0.04108037 -0.14536859
-0.61939615 0.08905488 -0.09161113
-0.73544568 -0.00462877 -0.14294964
-0.73696721 0.01171388 -0.03387860
-0.73593336 0.03450493 -0.05754195
-0.70526582 0.09879455 0.03737530
-0.76763266 0.05576987 0.02358219
-0.78602761 0.03943424 0.07238816
-0.68166476 0.15342712 0.11841670
-0.79242367 0.06044310 0.12740110
-0.70455837 0.14273076 0.15302530
-0.57647276 0.16344734 -0.00931322
-0.55256027 0.19963472 0.03497653
-0.54538584 0.25206259 0.10701732
-0.41238621 0.25818250 -0.05715891
-0.37109840 0.28509799 -0.03462197
-0.30288032 0.35066113 0.04312022
-0.65199679 0.20447287 0.17276858
-0.57411778 0.24201769 0.19435948
-0.52283758 0.29900923 0.15876035
-0.41720504 0.30392700 0.05990174
-0.38599610 0.37339681 0.15499659
-0.44135135 0.34210283 0.12800142
-0.44802961 0.33748010 0.22398193
-0.51122278 0.29799598 0.22790350
-0.37413737 0.35491216 0.22037436
-0.32791460 0.40425071 0.14344825
-0.53743917 -0.13219492 0.43066037
-0.63537461 -0.08341522 0.33502370
-0.60225207 -0.09426963 0.39983600
-0.66484457 -0.02946196 0.30802524
-0.53019637 -0.09698424 0.45787862
-0.60465658 -0.02497197 0.37648556
-0.68327403 -0.04886710 0.27664429
-0.62421310 0.01115126 0.31701210
-0.64569044 0.06549616 0.29864538
-0.74692905 0.04128197 0.21534079
-0.70449007 0.11049332 0.20512751
-0.63759398 0.13818784 0.27731779
-0.47631651 -0.05215511 0.43973604
-0.45403355 0.05954339 0.39505568
-0.53840864 0.00880044 0.37058651
-0.47435844 0.11781155 0.33963045
-0.40715900 0.10649864 0.42864215
-0.30407494 0.25389957 0.37614438
-0.37244505 0.14530745 0.43420690
-0.27830857 0.20984095 0.43294847
-0.23233785 0.16284117 0.47776407
-0.54747748 0.06918489 0.30460671
-0.50559700 0.16507177 0.29073206
-0.64448696 0.17259243 0.23577754
-0.52376413 0.23223448 0.24833746
-0.42671776 0.21735406 0.30648407
-0.43779689 0.16435029 0.35406646
-0.35696223 0.24517377 0.35013178
-0.34506375 0.30674660 0.30849272
-0.39008257 0.30884472 0.26777950
-0.77318358 0.07043450 0.17098920
0.09696110 0.34084630 0.09740742
0.10292732 0.32945278 0.16149706
0.15916474 0.29690039 0.25219473
0.20159693 0.33694100 0.20339718
0.02924658 0.29738846 0.24225348
0.00118567 0.34219047 0.14587544
-0.13776693 0.41612181 -0.01647854
-0.09019887 0.38254160 0.11209805
-0.02590535 0.39351761 0.02638043
-0.20579302 0.40995276 0.02625138
-0.25615522 0.38852927 0.07962618
-0.12978697 0.37533626 0.16066113
-0.06066220 0.33537695 0.19312558
-0.00577096 0.28399491 0.32761604
-0.10144240 0.31509465 0.31022874
-0.12135960 0.34169996 0.26381412
-0.03198054 0.29034251 0.40336859
-0.10410900 0.30078763 0.41037524
0.05949713 0.28775573 0.28223497
0.12182915 0.29540506 0.35925853
0.04492814 0.28878444 0.40306342
-0.14396539 0.35665423 0.21517734
-0.25125101 0.38468692 0.16055907
-0.29085770 0.34092048 0.27295038
-0.22229408 0.31723341 0.31927276
-0.16908160 0.40664443 -0.03737582
-0.21942800 0.25739777 0.41222596
-0.05605463 0.21891606 0.44690600
-0.05930630 0.26808801 0.43719304
