-0.31379578 -0.05198893 0.09389825
-0.33317441 -0.02327697 0.07094013
-0.32790557 -0.04939529 0.03863614
-0.15026735 -0.21603154 -0.00012268
-0.11300511 -0.21971275 -0.01879258
-0.10245630 -0.22283199 0.01850855
-0.06669959 -0.21775530 -0.00256524
-0.05461742 -0.21279873 -0.03335036
-0.02746860 -0.21162106 -0.01062152
-0.01471201 -0.20785679 -0.03937061
0.01150061 -0.20679195 -0.02008907
-0.19685905 -0.16844082 -0.15299691
-0.19860539 -0.17203747 -0.12160641
-0.23808689 -0.14882053 -0.14316316
-0.17640629 -0.20275235 -0.01409796
-0.18826191 -0.19238661 -0.05361055
-0.13891518 -0.21471454 -0.03484334
-0.24690582 -0.16108349 -0.02652433
-0.21716934 -0.17778169 -0.05736988
-0.20679381 -0.18072680 -0.00107630
-0.28627810 -0.12723738 -0.03579934
-0.26069322 -0.15092690 -0.07314196
-0.28520498 -0.11643409 -0.07374340
-0.27157101 -0.12625611 -0.10407085
-0.22558042 -0.16537121 -0.10345384
-0.19844614 -0.18015842 -0.08638532
-0.12059508 -0.19546832 -0.11440803
-0.17099395 -0.17740862 -0.13850413
-0.13319601 -0.17841901 -0.15428603
-0.18408260 -0.16852812 -0.18302652
-0.12402773 -0.16870207 -0.19400544
-0.08122744 -0.19357885 -0.12345783
-0.09435770 -0.17424247 -0.16445920
-0.03055118 -0.17975993 -0.16365929
-0.04216832 -0.19076450 -0.13330574
-0.08551659 -0.16424492 -0.20527096
-0.05636521 -0.16994332 -0.17766809
-0.04595527 -0.16293609 -0.21381973
-0.12696525 -0.21041727 -0.06634136
-0.10096881 -0.21498491 -0.04982503
-0.15687336 -0.20056660 -0.07522336
-0.08905026 -0.20834200 -0.08061344
-0.04188130 -0.20810048 -0.06184592
-0.00387099 -0.20453347 -0.07524707
-0.05046126 -0.20411828 -0.09167753
-0.13691446 -0.22182965 0.05171375
-0.18409035 -0.19618110 0.03674487
-0.14920573 -0.21906716 0.07917935
-0.13869864 -0.22143653 0.11659203
-0.18562892 -0.19990362 0.09595364
-0.17842831 -0.20792095 0.12977277
-0.20998545 -0.17425108 0.10323769
-0.20897457 -0.16960029 0.04451927
-0.20220667 -0.19215040 0.17507973
-0.17711011 -0.20699495 0.21189310
-0.20876558 -0.18144637 0.22187813
-0.14913727 -0.21819898 0.15623760
-0.12096070 -0.21678436 0.18279056
-0.10754544 -0.21878681 0.15441357
-0.13455473 -0.21424606 0.21070516
-0.15218045 -0.20854226 0.26418054
-0.08888916 -0.20949753 0.22558346
-0.22385293 -0.16365194 0.15273969
-0.23159045 -0.14713232 0.11115725
-0.22887319 -0.15280703 0.19912237
-0.24909605 -0.12614767 0.20595948
-0.24645527 -0.12717164 0.14003482
-0.27080947 -0.09568685 0.15407670
-0.07296250 -0.21733364 0.12779462
-0.10083188 -0.22210380 0.10118115
-0.06198142 -0.21786673 0.09107345
-0.03622216 -0.21452707 0.10950378
-0.02368346 -0.21390164 0.07885914
0.00272188 -0.21136771 0.09935816
-0.10906688 -0.22371267 0.07064139
-0.07590894 -0.22072382 0.03937496
-0.05077365 -0.21726958 0.05557440
-0.03927685 -0.21521196 0.02164033
-0.01184087 -0.21262212 0.04591044
-0.00016866 -0.20968992 0.01292207
0.02715533 -0.20765847 0.03658839
0.03514204 -0.20728748 0.06578962
-0.08174243 -0.21444714 0.17335437
-0.04511605 -0.21267785 0.15428442
-0.05584614 -0.21089345 0.19235866
-0.01782285 -0.21078034 0.17779163
-0.00844725 -0.21083491 0.21189882
-0.00990252 -0.21173625 0.12978111
0.02021528 -0.21059322 0.16330461
0.02931331 -0.20939168 0.12033859
0.03157904 -0.21092004 0.20455293
0.05613246 -0.20809829 0.14190809
0.07068469 -0.20824514 0.19482537
-0.24502984 -0.14249983 0.02614485
-0.26208588 -0.14203726 0.00141538
-0.22182974 -0.15440686 0.06709546
-0.24445070 -0.12990232 0.06986808
-0.27519712 -0.11680764 0.03572102
-0.30243728 -0.09771374 0.02311590
-0.30203468 -0.10015236 -0.03018435
-0.31867141 -0.07513098 0.00524275
-0.31468955 -0.07276955 -0.02542010
-0.27014816 -0.10498351 0.07933035
-0.29583216 -0.06877194 0.13382740
-0.30576175 -0.07784043 0.06083459
0.06555541 -0.18095438 -0.27332178
0.09580792 -0.18930364 -0.31914604
0.13078061 -0.19662839 -0.27092534
0.13662814 -0.19768317 -0.32651538
0.16612861 -0.20179950 -0.29708618
0.17706726 -0.19900589 -0.33279330
0.22474314 -0.19380143 -0.31047538
0.19233446 -0.20129615 -0.27802646
0.18986303 -0.19406892 -0.36102581
0.22932881 -0.18676409 -0.36781633
0.25302938 -0.17973165 -0.33696815
0.27127498 -0.16268046 -0.35612148
0.04448372 -0.20542541 -0.05259957
0.08502421 -0.20705202 -0.05861527
0.07180126 -0.20561542 -0.02973693
0.09817749 -0.20826904 -0.08767003
0.13832621 -0.20872119 -0.09469921
0.11722071 -0.20865037 -0.06310938
0.15045437 -0.20741332 -0.04266387
0.16487846 -0.20662770 -0.07382013
0.17653570 -0.20335969 -0.10674511
0.19157125 -0.20107730 -0.05121532
0.20134704 -0.19604716 -0.09036966
0.01979695 -0.19714221 -0.13954790
0.03575760 -0.19331557 -0.17314169
0.06147821 -0.20168243 -0.14243463
0.07281468 -0.19745283 -0.17618939
0.12145403 -0.20340769 -0.15424617
0.12848289 -0.19965784 -0.18447630
-0.01477255 -0.16365594 -0.24667862
-0.00262952 -0.17288291 -0.21265759
0.02757527 -0.17486015 -0.24417223
0.03261326 -0.17239681 -0.27512524
0.04157103 -0.18548203 -0.20920487
0.00661136 -0.18398514 -0.18292107
0.09294138 -0.18777011 -0.25253728
0.10414594 -0.19321075 -0.21366461
0.02887617 -0.20211482 -0.10824689
0.06991616 -0.20523889 -0.11297040
0.05718647 -0.20529178 -0.08281983
0.10959450 -0.20725422 -0.12226074
0.14990509 -0.20521830 -0.12782688
0.18669358 -0.20086090 -0.22190180
0.15983626 -0.20150505 -0.16687815
0.14456451 -0.19874872 -0.22149783
0.19841145 -0.19864038 -0.17846988
0.22430788 -0.19368541 -0.23551489
0.23635526 -0.18632297 -0.18907756
0.26849762 -0.15754390 -0.22165456
0.23319945 -0.19108927 -0.27874261
0.26843387 -0.16543274 -0.29448915
0.26271892 -0.16943845 -0.26506341
0.18809253 -0.19979075 -0.13992979
0.22457334 -0.18924691 -0.15644765
0.21246070 -0.19114958 -0.12470084
0.23614284 -0.16856517 -0.09448519
0.24342641 -0.16589248 -0.12606207
0.25414857 -0.16288140 -0.15857600
0.26332495 -0.16001949 -0.19066526
0.27868673 -0.12993395 -0.19359738
0.26519424 -0.12585527 -0.13937201
0.27814704 -0.10473166 -0.16130972
0.28804311 -0.12507823 -0.25530428
0.28403112 -0.12764639 -0.22444467
0.28934392 -0.10030241 -0.19523700
0.11203079 -0.20290944 0.04114133
0.14964521 -0.20483476 0.02437010
0.15831336 -0.20106637 0.05724500
0.19172429 -0.20013943 0.02617517
0.03863997 -0.20566139 0.00258885
0.06573472 -0.20481978 0.02496492
0.10366220 -0.20518431 0.00988139
0.07991439 -0.20293404 0.07724001
0.13945472 -0.20682950 -0.01342302
0.17972901 -0.20485717 -0.01914355
0.06792925 -0.20524870 0.10934418
0.11386641 -0.20128466 0.12489760
0.12040613 -0.20060092 0.07243765
0.08268226 -0.20599747 0.16278085
0.12493294 -0.20164685 0.16505156
0.16713536 -0.19653104 0.09094921
0.20722321 -0.18612483 0.08751230
0.21306163 -0.18463507 0.11884044
0.16719374 -0.19776568 0.16723217
0.15588979 -0.19731656 0.12624456
0.20502369 -0.19126642 0.15420447
0.21456304 -0.18989779 -0.01527312
0.22905420 -0.17566559 -0.05886344
0.24593115 -0.14297034 -0.03674967
0.22366375 -0.17768268 0.02722307
0.24146670 -0.14765817 -0.00384585
0.24956760 -0.14064300 -0.06731693
0.21984918 -0.17845705 0.05965885
0.23766957 -0.15275030 0.05704847
0.23698696 -0.16717945 0.12599994
0.24698439 -0.13719593 0.09641681
0.24657984 -0.11950760 0.02465294
0.24792084 -0.11615160 -0.00643983
0.25092003 -0.10650929 0.06730785
0.25042531 -0.07596982 0.03915681
0.25330967 -0.13830546 -0.09791321
0.25760707 -0.09784567 -0.08064663
0.27032027 -0.07748120 -0.12957826
0.25540829 -0.06758321 -0.08048502
0.28370199 -0.07421349 -0.16282286
0.26281312 -0.04344713 -0.11909448
0.27497897 -0.03807345 -0.14942856
0.28721830 -0.03232755 -0.17936446
0.26136470 -0.00584692 -0.13868345
0.27947024 0.00794289 -0.19342229
0.24619223 -0.05911203 -0.00338842
0.24873465 -0.08192430 -0.03080726
0.24298555 -0.03169187 -0.03409017
0.25001568 -0.02421057 -0.09185522
0.24200980 0.01413202 -0.09808891
0.24664880 0.03662759 -0.14749365
0.24086070 0.00107166 -0.03031676
0.23677760 0.02974194 -0.05607358
0.23458862 0.04680001 -0.09918319
0.28167057 -0.14757340 -0.31653997
0.29068032 -0.12284503 -0.28559911
0.30039632 -0.09330354 -0.28698087
0.29544792 -0.09773696 -0.22648215
0.29831553 -0.09548153 -0.25684029
0.30532399 -0.06620131 -0.25747818
0.30063891 -0.05531063 -0.21118626
-0.11336599 -0.15123825 -0.37857601
-0.15852071 -0.13908592 -0.38565874
-0.12729047 -0.13207637 -0.42146811
-0.18118800 -0.16515794 -0.24781080
-0.21410888 -0.14373131 -0.28361008
-0.17700237 -0.16012089 -0.30731037
-0.23441915 -0.12171204 -0.27246562
-0.22321080 -0.14576150 -0.24094921
-0.14683819 -0.16553754 -0.27592200
-0.11608312 -0.16420427 -0.24001208
-0.08164746 -0.15936860 -0.26597905
-0.13937850 -0.16199912 -0.32403067
-0.10828542 -0.16120519 -0.28707984
-0.10065218 -0.15838097 -0.33480766
-0.06960704 -0.15724939 -0.29791272
-0.16518627 -0.15648890 -0.33952922
-0.19150651 -0.14222072 -0.34468046
-0.20295812 -0.14530295 -0.31196544
-0.21713264 -0.11608957 -0.33635259
-0.20180212 -0.11263305 -0.37013328
-0.22652000 -0.11897261 -0.30420467
-0.24030781 -0.09169912 -0.29912916
-0.23216395 -0.08788051 -0.32971221
-0.16843857 -0.10963333 -0.41141412
-0.11435947 -0.12420029 -0.44919965
-0.13988079 -0.10271014 -0.44629052
-0.12431781 -0.09494953 -0.47517326
-0.16219316 -0.07625263 -0.43886539
-0.14570633 -0.06740668 -0.46684751
-0.13769653 -0.04330383 -0.50573093
-0.17419800 -0.01822671 -0.46256039
-0.16384728 0.00003986 -0.50911367
-0.20738880 -0.07491832 -0.38798830
-0.22027363 -0.08387851 -0.36153093
-0.23904422 -0.04723825 -0.34048083
-0.22678171 -0.04578481 -0.37184000
-0.23301490 -0.00535879 -0.38032925
-0.20320418 -0.03829268 -0.41088256
-0.18726569 -0.06535864 -0.41654894
-0.21611480 0.00435526 -0.42018804
-0.22019842 0.03454236 -0.44734749
-0.23234133 0.03139342 -0.41444254
-0.19543964 -0.00696305 -0.44129640
-0.18391757 0.01141654 -0.48817146
-0.15984638 0.04351358 -0.55586118
-0.15160176 0.00571887 -0.53912628
-0.22306573 0.06778922 -0.47143129
-0.23509407 0.07502231 -0.42653939
-0.20756859 0.05032395 -0.49766147
-0.20319714 0.08403182 -0.52400923
-0.18152231 0.06962346 -0.54908490
-0.21030043 0.10640980 -0.48790592
-0.18491402 0.10673431 -0.54839581
-0.19319652 0.12691338 -0.51004022
-0.16684178 0.13424996 -0.54945409
-0.34199369 -0.02017358 0.01422524
-0.35357320 0.00731299 0.01869406
-0.34650546 -0.00258908 -0.02737326
-0.36600730 0.03435810 -0.00887700
-0.35540807 0.01847210 0.06419530
-0.36657372 0.03466244 0.02355327
-0.37917075 0.06205008 0.02830233
-0.35326779 0.02658668 -0.05466765
-0.37496307 0.06502017 -0.03070570
-0.36599624 0.06925296 -0.06402387
-0.38500124 0.10037756 0.02167910
-0.37862727 0.09774459 -0.03254907
-0.36714828 0.10154697 -0.06593518
-0.25693879 -0.09923554 -0.20585337
-0.24484602 -0.11945052 -0.23395409
-0.23160729 -0.14596362 -0.19507858
-0.26170817 -0.10167221 -0.17497486
-0.24781331 -0.09440057 -0.26749825
-0.25217906 -0.05092733 -0.27915195
-0.26323643 -0.06761838 -0.20618425
-0.25764912 -0.05343237 -0.24808025
-0.28647450 -0.07941250 -0.10774538
-0.29495797 -0.08220172 -0.07583814
-0.26027307 -0.12520748 -0.13908313
-0.28575608 -0.05482719 -0.13061506
-0.27243599 -0.06750030 -0.16308637
-0.27601141 -0.03055470 -0.18261017
-0.27989975 0.01494181 -0.22396395
-0.26420453 -0.02743819 -0.21542281
-0.29628167 -0.01275834 -0.15415122
-0.29571033 0.01143896 -0.19005136
-0.19259988 -0.16473384 -0.21269597
-0.15147689 -0.16810675 -0.21720476
-0.05430874 -0.15963288 -0.24306543
-0.25223121 -0.00901505 -0.26242185
-0.26434830 0.02001620 -0.25595519
-0.29760754 0.04381424 -0.24738041
-0.25319877 0.02032480 -0.29176766
-0.27585304 0.04155723 -0.29026547
-0.32117826 0.05288254 -0.19589999
-0.33022571 0.08259065 -0.22169572
-0.27550730 0.06519102 -0.32672986
-0.29037046 0.09236074 -0.32135892
-0.30959272 0.07323811 -0.27236834
-0.26442096 0.09684195 -0.35805699
-0.32391822 0.10045972 -0.26714513
-0.30114898 0.12851630 -0.27529347
-0.26962426 0.13567960 -0.31103849
-0.24588332 -0.04834262 -0.31045052
-0.24224755 -0.01741064 -0.33973074
-0.24160387 0.02852243 -0.38232890
-0.24760197 0.02596644 -0.35111213
-0.24313287 0.06845301 -0.39123258
-0.25572544 0.06798907 -0.36072728
-0.32194793 -0.02759823 -0.06584802
-0.29871720 -0.04851973 -0.09907293
-0.32786289 -0.04543677 -0.02051341
-0.33901912 -0.00064234 -0.05986977
-0.32397547 -0.00082222 -0.09775364
-0.31227809 0.00221775 -0.13061264
-0.32165080 0.03438825 -0.15342909
-0.33152026 0.02768899 -0.11520189
-0.34387085 0.02947064 -0.08681820
-0.35302567 0.06742162 -0.10302015
-0.34462225 0.07724705 -0.15860271
-0.33629012 0.07975118 -0.19078183
-0.34926122 0.10981036 -0.15093362
-0.33630082 0.11914729 -0.17698361
-0.29563949 0.13241270 -0.17732882
-0.32838067 0.11644676 -0.22560759
-0.28697380 0.13399209 -0.22177377
-0.24402988 0.14163578 -0.29228926
-0.25292575 0.14003280 -0.24872831
-0.25620052 0.13953681 -0.18431836
-0.24468376 0.14167456 -0.21815154
-0.34545901 0.11710642 -0.11208813
-0.30418602 0.13087213 -0.13247448
-0.31608075 0.12831615 -0.10016393
-0.34177041 0.12353586 -0.04234282
-0.31153619 0.12973878 -0.04684176
-0.29054710 0.13346326 -0.08191989
-0.26766986 0.13763380 -0.15022996
-0.27921218 0.13541366 -0.11648082
-0.22869623 0.14441034 -0.15899746
-0.24068940 0.14214946 -0.12694153
-0.25277731 0.14017265 -0.09513076
-0.26473823 0.13778530 -0.06296388
-0.21195757 0.14703810 -0.09714726
-0.21142726 0.14733046 -0.24812245
-0.20631330 0.14847489 -0.30561021
-0.17361614 0.15388624 -0.26119894
-0.21664773 0.14650534 -0.19091022
-0.18585943 0.15175124 -0.22921303
-0.15783563 0.15630539 -0.20290957
-0.16264765 0.15593328 -0.29705968
-0.17082623 0.15460771 -0.32729456
-0.13569412 0.16010949 -0.27398846
-0.11155745 0.16418056 -0.33771136
-0.12339508 0.16217516 -0.30499956
-0.09769545 0.16610299 -0.28657973
-0.14776124 0.15807028 -0.24212384
-0.10979930 0.16417389 -0.25481012
-0.12182675 0.16201577 -0.22284289
-0.19084325 0.15084061 -0.17196561
-0.20282246 0.14853787 -0.13987359
-0.14968406 0.15749641 -0.17282021
-0.17264967 0.15355583 -0.10478888
-0.16115336 0.15559340 -0.13873179
-0.13341057 0.15973043 -0.11280151
-0.11043822 0.16370465 -0.18079646
-0.07932643 0.16880934 -0.21876751
-0.06993107 0.16982672 -0.18421194
-0.12006859 0.16200909 -0.13994163
-0.09406971 0.16576152 -0.12049409
-0.08271027 0.16776769 -0.15494619
-0.05600175 0.17154728 -0.13290611
-0.22702946 0.10440445 -0.42746744
-0.24578974 0.10450279 -0.38824141
-0.23041235 0.13375212 -0.39849979
-0.19773917 0.13781197 -0.46379578
-0.21201356 0.13445735 -0.43030524
-0.17692249 0.15325938 -0.42646205
-0.16427578 0.15560788 -0.45610839
-0.17314094 0.15085727 -0.49004540
-0.16168378 0.15269974 -0.52419925
-0.24376494 0.13556664 -0.36996064
-0.25666627 0.13602832 -0.34025407
-0.19871205 0.14975755 -0.35399595
-0.23195481 0.14364035 -0.32413706
-0.16332445 0.15597311 -0.37601325
-0.18893450 0.15105502 -0.39445493
-0.13633193 0.16074732 -0.42909420
-0.12821543 0.16176343 -0.39919397
-0.13752830 0.16033332 -0.35709018
-0.06821018 -0.13373110 -0.51411802
-0.05522313 -0.12942964 -0.54183960
-0.04339318 -0.14934933 -0.50577611
-0.07804199 -0.10901797 -0.54122490
-0.01223146 -0.14399573 -0.54347801
-0.00031388 -0.15741280 -0.50481158
0.03852536 -0.15393928 -0.51522833
0.02727885 -0.13646889 -0.55002844
-0.02209804 -0.11428750 -0.56895691
0.01619522 -0.08699588 -0.57299531
-0.06810662 -0.07531495 -0.56972742
-0.02846444 -0.07302044 -0.57763565
0.07324862 -0.13618734 -0.53561181
0.06375311 -0.10462904 -0.55909026
0.07476173 -0.17588298 -0.39103851
0.01160966 -0.16710266 -0.38831025
0.02465961 -0.16706188 -0.41729936
-0.06892242 -0.14807144 -0.44524321
-0.03347076 -0.15618186 -0.47205919
-0.04018939 -0.15699716 -0.42029667
-0.04705539 -0.15688582 -0.38565335
-0.01430336 -0.16211718 -0.40437621
-0.07719135 -0.15197138 -0.40016919
0.01621701 -0.16349146 -0.44677562
0.02717934 -0.16058569 -0.48235717
0.05353766 -0.16335107 -0.46389061
0.06544740 -0.16942988 -0.42267531
0.00607100 -0.16601509 -0.33158442
-0.05708034 -0.15658799 -0.32858843
-0.04209741 -0.15802602 -0.27455696
-0.02924059 -0.15832455 -0.30440614
0.04972725 -0.17698242 -0.32953981
0.11369085 -0.18922274 -0.35782522
-0.04343290 -0.15733916 -0.35571879
0.09528209 -0.17176148 -0.42605320
0.11664653 -0.18125962 -0.39347816
0.12434633 -0.17341010 -0.43919864
0.15000811 -0.17964616 -0.42448640
0.17598337 -0.18436834 -0.40813941
0.16246557 -0.17286550 -0.45330274
0.20323908 -0.16280191 -0.45436430
0.21535064 -0.17755461 -0.41546094
0.13661718 -0.16751094 -0.46896595
0.11089712 -0.16156343 -0.48399162
0.08509205 -0.15603976 -0.49947560
0.11949635 -0.13451992 -0.51969665
0.14512751 -0.14095761 -0.50520468
0.17087050 -0.14679076 -0.49005532
0.19832912 -0.13123679 -0.48264486
0.16221836 -0.11102775 -0.50898713
0.18505485 -0.09190204 -0.49565083
0.21065548 -0.08159080 -0.47534925
0.14458534 -0.19085309 -0.37165698
0.20238891 -0.18689826 -0.38941821
0.24213140 -0.17595223 -0.39392263
-0.09008139 -0.12453147 -0.49082845
-0.10293095 -0.09519025 -0.51557964
-0.10602540 -0.06490846 -0.54301018
-0.12561730 -0.03835997 -0.53653121
-0.09024540 -0.05151260 -0.56544638
0.01273163 -0.05119929 -0.57302946
-0.05174713 -0.04903140 -0.57745272
-0.07441486 -0.02786624 -0.57602328
-0.03249628 -0.01391874 -0.57606405
0.00898786 -0.00017022 -0.56873327
0.11037193 -0.10111155 -0.54117459
0.08146740 -0.07159106 -0.55951190
0.13626082 -0.10626429 -0.52529317
0.15577249 -0.06426526 -0.51602501
0.13079104 -0.06130103 -0.53479338
0.03918008 -0.03758346 -0.56747448
0.06570463 -0.02171060 -0.55933338
0.10129102 -0.02803871 -0.54856265
0.05315334 0.00908620 -0.55773187
0.19873241 -0.04537945 -0.47888535
0.15291551 -0.02840196 -0.51382774
0.17945997 -0.00454554 -0.48533311
0.20542996 -0.00281586 -0.46400958
0.09960300 0.00299509 -0.54380679
0.07364688 0.04721521 -0.54624909
0.15066418 0.02182646 -0.50438046
0.12120929 0.02359205 -0.52828997
0.11767240 0.07720616 -0.52851230
0.14754446 0.05250930 -0.50495911
0.23202063 -0.14524689 -0.44818375
0.28364015 -0.13700236 -0.38216215
0.25455716 -0.14504868 -0.42480704
0.26442704 -0.11549310 -0.42623037
0.28967094 -0.08643044 -0.40230921
0.24227297 -0.11443975 -0.44830611
0.23865604 -0.08383919 -0.45072347
0.26384786 -0.06215435 -0.42791513
0.23468153 -0.03393899 -0.44766369
-0.11206812 -0.00630647 -0.56834382
-0.08003881 0.02538815 -0.57585573
-0.13859552 0.02255625 -0.56237495
-0.10219125 0.04672838 -0.57442260
-0.05662637 0.00554175 -0.57604480
-0.03680309 0.03894708 -0.56866080
0.00699290 0.03853835 -0.56239903
-0.12447171 0.06982434 -0.57090539
-0.09454580 0.08120278 -0.56928748
0.00500976 0.07698525 -0.55611360
-0.06014948 0.06687605 -0.56732589
-0.03968270 0.09105907 -0.56083888
0.00261324 0.12764896 -0.54704189
-0.12634704 0.09992228 -0.56716001
-0.12677944 0.13408649 -0.55673420
-0.08405024 0.12134144 -0.55868840
-0.06287958 0.14412530 -0.55013067
0.04736630 0.06233827 -0.55042499
0.07284430 0.07811014 -0.54199636
0.04857460 0.09584185 -0.54392654
0.20456532 0.02899011 -0.45867711
0.17780083 0.02973052 -0.47933334
0.18742065 0.06794403 -0.47062674
0.14007978 0.09419253 -0.51748931
0.16735569 0.09600185 -0.49407604
0.19520238 0.10065690 -0.46758559
0.17618367 0.12604481 -0.49453336
0.20297337 0.15525663 -0.47103688
0.26309732 0.02104199 -0.17191333
0.26216868 0.04207959 -0.21089527
0.23047721 0.06564825 -0.17133215
0.22397561 0.07852083 -0.21762031
0.25974676 0.06740572 -0.24432863
0.23705204 0.08843632 -0.24304469
0.21447337 0.11004549 -0.24113512
0.24564226 0.11693697 -0.27705762
0.22901681 0.07684350 -0.12593378
0.21537428 0.09279408 -0.16589464
0.21456040 0.11934228 -0.13481458
0.20181791 0.10875373 -0.20587987
0.19880003 0.13904366 -0.23333211
0.20240583 0.13543719 -0.17518491
0.19492336 0.16529632 -0.20141059
-0.06663888 0.17119823 -0.32479298
-0.02854986 0.17692086 -0.33715054
-0.01721039 0.17843361 -0.29534450
-0.07180014 0.17016593 -0.26740015
-0.04570816 0.17366897 -0.24773923
-0.00764167 0.17945914 -0.26015505
0.01380020 0.18303375 -0.33386117
-0.01641860 0.17876776 -0.36884919
0.04478380 0.18749931 -0.37252331
0.05477304 0.18868616 -0.33574650
0.02193559 0.18414403 -0.30385908
0.03049484 0.18503937 -0.27238971
0.06912115 0.19048707 -0.28288808
-0.03203815 0.17561752 -0.19729720
-0.02055670 0.17758107 -0.23132014
0.00625631 0.18127365 -0.20893028
-0.04392240 0.17354979 -0.16473906
-0.00436148 0.17942490 -0.17172337
0.01856769 0.18318385 -0.23995110
0.04442343 0.18676212 -0.22108577
0.05766105 0.18863188 -0.24874939
0.05431633 0.18778533 -0.18471710
0.08975697 0.19250603 -0.20706639
0.21105815 0.14220370 -0.26626873
0.23668608 0.14968204 -0.29936925
0.20987409 0.17267060 -0.29422477
0.08599190 0.19326517 -0.37351245
0.12427558 0.19840425 -0.38536641
0.11152414 0.19660674 -0.35590780
0.08082653 0.19227490 -0.31615770
0.10694441 0.19567057 -0.29640231
0.13916032 0.20021231 -0.33055219
0.15060955 0.20196825 -0.36480328
0.16260950 0.20342240 -0.39711788
0.20127049 0.20743030 -0.40799573
0.18889388 0.20631893 -0.37693176
0.17666076 0.20477740 -0.34549659
0.16480668 0.20209958 -0.31308091
0.22700302 0.18030523 -0.32385886
0.20640254 0.20489320 -0.35112059
0.17931131 0.19239378 -0.19583391
0.14770684 0.19864269 -0.22349086
0.13516128 0.19803779 -0.19286394
0.10186890 0.19441091 -0.23881510
0.13565210 0.19855246 -0.26740077
0.18988246 0.17040423 -0.23293972
0.17959927 0.18870330 -0.26394233
0.29329947 -0.12248080 -0.34190258
0.30604327 -0.05822385 -0.37595075
0.30411628 -0.08899018 -0.34714067
0.30261156 -0.09111258 -0.31715837
0.31038812 -0.06175824 -0.31800729
0.31476343 -0.03075565 -0.34748998
0.29111540 -0.05597856 -0.40299857
0.26079392 -0.02503273 -0.42599276
0.28774163 -0.02412472 -0.40409067
0.30661848 -0.00096046 -0.37353367
0.27546304 0.01330097 -0.40868387
0.30795208 -0.06397051 -0.28776911
0.31496030 -0.02040252 -0.30370972
0.30519640 -0.02428970 -0.24071971
0.31057870 -0.02179974 -0.27177495
0.30322856 0.02139137 -0.28260040
0.31002915 0.02599540 -0.34361422
0.29409167 0.04172528 -0.38294527
0.29897210 0.05156178 -0.30971238
0.29455245 0.08171646 -0.33677951
0.23288693 -0.00343666 -0.44348246
0.23102619 0.02673601 -0.43965769
0.25490758 0.05783277 -0.41831344
0.21432576 0.06856380 -0.44845021
0.28050876 0.08430911 -0.39206675
0.24280526 0.09793868 -0.42541796
0.28653231 0.11152370 -0.36285749
0.26440069 0.12664928 -0.40049446
0.21998025 0.12631656 -0.44742787
0.24698958 0.16853920 -0.40825036
0.23118079 0.16931467 -0.43378922
0.28142285 0.03062415 -0.23161325
0.28974798 0.04869450 -0.27760932
0.27246967 0.07555860 -0.27165896
0.28472295 0.08137030 -0.30152082
0.27171913 0.13488698 -0.33005676
0.25800616 0.16597894 -0.35244533
0.25917840 0.12764232 -0.30174437
0.24160437 0.19497664 -0.37621990
-0.12488016 0.16256289 -0.46327716
-0.11352650 0.16384043 -0.49804413
-0.10098520 0.16019201 -0.53018039
-0.07628158 0.16782755 -0.51408368
-0.06614687 0.17115298 -0.47602621
-0.01945443 0.15559034 -0.54104823
-0.02480119 0.17688343 -0.47652701
-0.03587685 0.17205895 -0.51853597
0.02407920 0.16673021 -0.53168511
0.01186576 0.18118119 -0.49456120
-0.06937824 0.17087154 -0.41138285
-0.09707515 0.16696323 -0.43706581
-0.05793322 0.17265345 -0.44560221
-0.10040788 0.16622339 -0.37291449
-0.06862107 0.17096639 -0.37970543
-0.03022281 0.17662904 -0.41984650
0.00114236 0.18080175 -0.45722264
-0.00426640 0.18054111 -0.40049750
0.03393084 0.18593931 -0.41257507
0.09093483 0.11757722 -0.53511304
0.04689064 0.12689584 -0.53914881
0.06077424 0.16275728 -0.53481764
0.15093935 0.12558605 -0.51716685
0.10877071 0.15117450 -0.53493351
0.15430884 0.15781328 -0.51985514
0.09889708 0.17974931 -0.52986300
0.12862365 0.17485999 -0.53085542
0.05074052 0.18553938 -0.50453794
0.03941159 0.18598413 -0.46911398
0.07881930 0.19135158 -0.47679630
0.06541219 0.18973142 -0.44966200
0.07571208 0.19168906 -0.41148371
0.10655265 0.19544153 -0.45091695
0.13432528 0.19968040 -0.42488018
0.17863622 0.17586286 -0.50147003
0.11617512 0.19570386 -0.49234188
0.14226067 0.19919644 -0.47267011
0.15561225 0.19525196 -0.50196111
0.16819297 0.20314853 -0.45339486
0.18350486 0.19727252 -0.47854140
0.20398697 0.19727175 -0.45459956
-0.19932266 -0.17314453 0.32342437
-0.17838737 -0.19814037 0.28636524
-0.16569231 -0.19208400 0.33470130
-0.12144468 -0.21006939 0.25989157
-0.13464434 -0.20895849 0.28877813
-0.07712550 -0.20642318 0.26948196
-0.12639990 -0.20730254 0.31936881
-0.06893368 -0.20502959 0.29978892
-0.08135254 -0.20507708 0.33107281
-0.05025772 -0.19524306 0.39948663
-0.10493042 -0.17915937 0.40740067
-0.07098752 -0.19943644 0.37078172
-0.07309435 -0.18418610 0.42112765
-0.16103497 -0.17338966 0.37205723
-0.13795742 -0.19353595 0.35863984
-0.18385755 -0.17013210 0.35279584
-0.20274226 -0.13565980 0.37266907
-0.13429999 -0.17277311 0.39429578
-0.17397019 -0.14030728 0.39926046
-0.11167915 -0.19059953 0.37881768
-0.04753558 -0.20890786 0.22330579
-0.02141690 -0.21016842 0.24142864
-0.01283455 -0.20952545 0.27289346
-0.04137276 -0.20502274 0.32360655
0.01285968 -0.20948127 0.28992963
0.00656504 -0.20708613 0.34436303
0.02496744 -0.21051566 0.25713339
0.05824393 -0.20916420 0.22572339
0.05241311 -0.20785794 0.28146264
0.03945111 -0.20750523 0.31091005
0.09089924 -0.20543729 0.26939079
0.08003151 -0.20433909 0.30672303
-0.00714626 -0.20417470 0.37198180
0.00337249 -0.19229423 0.41444191
0.03284086 -0.20414238 0.36453456
0.04022671 -0.19752088 0.39374411
0.07233828 -0.20264196 0.35582048
0.10748124 -0.20166118 0.33107409
0.08683153 -0.18091552 0.41620573
0.11668890 -0.19522259 0.36685061
-0.10967673 -0.12609820 0.48526549
-0.12320171 -0.14707828 0.45164081
-0.09694839 -0.16958512 0.43981737
-0.03302393 -0.18380770 0.43795112
-0.05767877 -0.15801626 0.47737005
-0.02470577 -0.16274461 0.47562656
-0.04283207 -0.13797921 0.49485096
-0.08907281 -0.14967299 0.47547761
-0.14547844 -0.14400662 0.42516446
-0.18130754 -0.10681576 0.42518440
-0.20324188 -0.10696907 0.40162697
-0.14286254 -0.12035906 0.45834583
-0.19472755 -0.07949434 0.43017486
-0.16981682 -0.07905383 0.45291460
-0.07999688 -0.11828530 0.50016516
-0.10323898 -0.09191167 0.50785404
-0.04190884 -0.10595068 0.50946093
-0.06154994 -0.06350119 0.52938288
-0.01954837 -0.07715671 0.52446043
-0.13324463 -0.09374546 0.48734790
-0.15011135 -0.05056519 0.47831145
-0.11591970 -0.06451892 0.51264137
-0.13561882 -0.02436084 0.50307626
0.01184796 -0.17418049 0.45165405
0.05099033 -0.17161572 0.44202149
0.03726733 -0.14690807 0.47725326
0.12411057 -0.17276467 0.40175283
0.07476430 -0.13941053 0.46336409
0.11121573 -0.12877861 0.44677022
0.12691727 -0.14422798 0.42199200
-0.00046784 -0.13203809 0.49813157
0.04117320 -0.09807408 0.50862241
0.02239092 -0.07532807 0.52474982
0.07863037 -0.10758606 0.48861411
0.11614937 -0.10015456 0.47478196
0.08196147 -0.07405005 0.51251799
0.12063862 -0.07009059 0.50168192
-0.28644201 -0.06990822 0.24411176
-0.27979752 -0.08521722 0.20154244
-0.27024400 -0.10155501 0.24263361
-0.26540726 -0.09528474 0.31176329
-0.25734818 -0.11758446 0.28280592
-0.23672991 -0.12593399 0.32887718
-0.25771195 -0.09077594 0.34135714
-0.22615100 -0.10378419 0.37516320
-0.27981421 -0.07585175 0.27611932
-0.29009563 -0.03490091 0.29569101
-0.27744573 -0.06426746 0.32050264
-0.30209854 -0.00750873 0.30021569
-0.30047160 -0.05663254 0.17894231
-0.31372982 -0.04064564 0.13887657
-0.31395775 -0.03130055 0.21351150
-0.33057666 -0.00986529 0.18105870
-0.32933515 -0.01950841 0.10568660
-0.33916980 0.00079253 0.13301402
-0.35551172 0.02361659 0.10205726
-0.35465619 0.02791022 0.13856243
-0.32525349 -0.00575060 0.24748655
-0.34499836 0.01296181 0.21308672
-0.32553229 0.01428610 0.28440669
-0.34247559 0.02120393 0.25352156
-0.36249816 0.05378025 0.17157334
-0.35887712 0.05020089 0.22974764
-0.36449721 0.08024048 0.20300959
-0.22055256 -0.07704543 0.40493259
-0.25053057 -0.06889044 0.37518370
-0.24404825 -0.03838411 0.40130490
-0.26390874 -0.03833730 0.37717772
-0.21869303 -0.03909782 0.42502961
-0.28553480 -0.02316347 0.33938858
-0.30520174 0.01884496 0.33195528
-0.28152424 -0.00199495 0.36236948
-0.26043156 0.00394117 0.39296949
-0.27789167 0.03284356 0.36947936
-0.22121432 -0.00913178 0.42637745
-0.22655788 0.02789471 0.41993231
-0.25463286 0.03734696 0.39756593
-0.26253155 0.07686245 0.38269460
-0.23986802 0.07642639 0.40528718
-0.34164616 0.04787112 0.28410429
-0.31814340 0.05741849 0.32645109
-0.33529824 0.09042662 0.29910737
-0.31731957 0.09019822 0.32375157
-0.35170129 0.07748048 0.25858679
-0.34967512 0.10799401 0.22944227
-0.31569391 0.12646230 0.20660941
-0.32069361 0.12438104 0.23722945
-0.32207033 0.12228268 0.26719329
-0.27996835 0.13188705 0.26204860
-0.28802732 0.13116170 0.23245990
-0.29092315 0.06948873 0.35326585
-0.27782944 0.10530617 0.35785294
-0.26389235 0.13314033 0.32100391
-0.29973149 0.12044579 0.32014665
-0.24411668 0.11339127 0.38604912
-0.23569523 0.13700333 0.34849176
-0.27182916 0.13301826 0.29207185
-0.20955840 -0.17992358 0.25580791
-0.24026154 -0.14256902 0.24724755
-0.22363974 -0.16001287 0.28805047
-0.19263142 -0.04025195 0.44298211
-0.18669118 -0.00822552 0.44594118
-0.15953375 -0.00756821 0.46806365
-0.19448139 0.03492896 0.43524495
-0.16936903 0.03538893 0.45792928
-0.20927024 0.07405104 0.42256537
-0.27645409 0.13358274 0.19893163
-0.24058352 0.13878824 0.25482163
-0.22897032 0.14141256 0.22151032
-0.20033617 0.14568911 0.25073406
-0.21743758 0.14363177 0.18776383
-0.16940251 0.15113132 0.21219526
-0.16440634 0.15258576 0.15438765
-0.13888773 0.15629138 0.17207056
-0.13077529 0.15728730 0.20194896
-0.14228053 0.15520117 0.23584223
-0.22437261 0.14071426 0.31450441
-0.20954183 0.14031410 0.36834657
-0.16035116 0.15094875 0.32161924
-0.19820072 0.14450823 0.33459628
-0.16503417 0.14855547 0.38023701
-0.10342767 0.16019207 0.30251211
-0.11529033 0.15756147 0.33491322
-0.23244433 0.13991943 0.28484488
-0.18630134 0.14702871 0.30229017
-0.15384050 0.15284815 0.26944259
-0.11459062 0.15907657 0.26148817
-0.09345048 0.16325411 0.18689553
-0.10542283 0.16095236 0.21901287
-0.06737617 0.16680199 0.20654576
-0.08004665 0.16546585 0.15995705
-0.03637230 0.17200397 0.16821606
-0.01020984 0.17528757 0.18809432
-0.00169531 0.17718267 0.14324798
0.02592738 0.18072097 0.16853082
-0.06540428 0.16611142 0.28998482
-0.07079773 0.16433981 0.34623495
-0.02812708 0.17179006 0.27465686
-0.03931455 0.16961306 0.30967495
0.00578566 0.17607804 0.32309824
0.01102834 0.17754756 0.26619321
0.06972100 0.18598199 0.25327951
0.03683018 0.18115816 0.28487372
-0.07948934 0.16481467 0.23826097
-0.05342165 0.16838236 0.25789407
-0.01660760 0.17394125 0.24083826
0.05357755 0.18439235 0.19396043
0.02285530 0.17953107 0.23343490
-0.03933087 -0.04160885 0.54144359
-0.08470804 -0.03485402 0.53495359
-0.11260714 0.00629408 0.52970546
-0.13788843 0.00588378 0.50714403
-0.06324639 0.00676027 0.54788613
-0.01756398 -0.01028128 0.55517232
-0.04001763 0.02466193 0.55478984
-0.06688192 0.03942034 0.54612446
-0.02402437 0.05831816 0.55575156
-0.07230670 0.08074220 0.53668427
0.00306758 -0.05559233 0.53785056
0.04594082 -0.04255887 0.54547495
0.02598576 -0.02092930 0.55694145
0.06822170 -0.01848179 0.55852801
0.08609444 -0.04302570 0.53845847
0.14490350 -0.03946481 0.52425665
0.10950112 -0.00971944 0.55885088
0.14850393 -0.00673626 0.54885733
0.04713029 0.01054037 0.56845480
0.08959503 0.01176332 0.57044405
0.13478319 0.03760287 0.56593347
0.00289878 0.01892314 0.56340849
0.02142159 0.05599016 0.56734496
0.05768873 0.04545344 0.57297385
0.01449446 0.10034946 0.55771136
0.06220187 0.07745266 0.57031178
0.07621173 0.11706073 0.55871403
0.08621586 0.05539724 0.57346988
0.12421605 0.07140490 0.56440151
0.13779248 0.10724912 0.54990411
0.11497385 0.12766007 0.55051941
-0.14998388 0.04855685 0.49755415
-0.14985307 0.09247566 0.48468179
-0.11654515 0.05490020 0.52383786
-0.12578723 0.09283465 0.50765359
-0.18335907 0.06903879 0.43861520
-0.18938005 0.10163238 0.42814735
-0.21738483 0.11249013 0.40653011
-0.16296306 0.11546440 0.45265704
-0.13706170 0.12232635 0.48247111
-0.17424871 0.13809381 0.41952649
-0.14933677 0.14491090 0.43609405
-0.12423380 0.15137073 0.45323148
-0.11303245 0.15601355 0.41909215
-0.08598088 0.15975583 0.44236776
-0.07435345 0.16244523 0.40913111
-0.09862956 0.08893985 0.52450079
-0.02929817 0.09017999 0.54774636
-0.05626649 0.11064249 0.53327525
-0.10728391 0.12468792 0.50555569
-0.07956534 0.13923779 0.51170206
-0.03759930 0.15661387 0.51561618
-0.10095137 0.15443479 0.47384700
-0.05839891 0.16309303 0.46743175
-0.04915927 0.16615389 0.42563421
-0.01175382 0.11929977 0.54532999
0.03131704 0.12893982 0.55248189
0.00215391 0.15716715 0.53274912
-0.01584827 0.16976805 0.47164866
-0.00407131 0.17265557 0.43902585
0.00787949 0.17502192 0.40685275
0.02205025 0.17606178 0.45879832
0.01012149 0.17362936 0.49102840
0.03666050 0.17567638 0.51184297
0.04597634 0.18072107 0.39451548
0.03397167 0.17851621 0.42654923
0.07884748 0.18425342 0.43890014
0.09044793 0.18680827 0.40551800
0.08238970 0.18608072 0.37593123
0.04777972 0.17935067 0.47710243
0.07453698 0.18203616 0.49893561
0.10648587 0.18785238 0.46426144
-0.19630216 0.13786304 0.39592534
-0.12164807 0.15555653 0.38757151
-0.08238469 0.16185223 0.37968981
-0.04427794 0.16795261 0.36752951
-0.00623740 0.17382059 0.35504657
-0.01818331 0.17143956 0.38723230
0.03184721 0.17955643 0.34267762
0.06998323 0.18513814 0.33044171
0.01984009 0.17735891 0.37470502
0.04777529 0.15571374 0.54528826
0.08767287 0.16517137 0.54082561
0.13093282 0.15194480 0.54063421
0.12173872 0.18500187 0.51877928
0.10191675 -0.20578872 0.23286602
0.11337837 -0.20397297 0.19868104
0.14347528 -0.20309049 0.23203698
0.15541653 -0.20067398 0.19984677
0.13094282 -0.20372389 0.26270157
0.11792929 -0.20295557 0.29214537
0.17564112 -0.20135428 0.27322355
0.19869223 -0.19699132 0.20565179
0.23650515 -0.18221053 0.19547082
0.18694066 -0.20029967 0.23821917
0.21483162 -0.19542186 0.26494902
0.22659017 -0.19069086 0.23290671
0.16405255 -0.19954941 0.30818018
0.15024085 -0.19633701 0.33553925
0.15794548 -0.17903650 0.36965993
0.18859480 -0.19140862 0.32386708
0.19526935 -0.16800363 0.35638246
0.20261706 -0.19525228 0.29705274
0.24122222 -0.17847997 0.27438077
0.22861674 -0.16971956 0.32415318
0.24690419 -0.14293525 0.32362136
0.25883341 -0.14816418 0.27084595
0.25968179 -0.12182503 0.30104119
0.24620719 -0.16538928 0.16018949
0.25550753 -0.15785880 0.19717973
0.26103657 -0.14598835 0.24065717
0.26144683 -0.11536913 0.21226451
0.26181579 -0.10397021 0.25719017
0.16218328 -0.14520232 0.39696890
0.18158607 -0.12165394 0.39936024
0.14741985 -0.11740529 0.42953658
0.22200841 -0.14238353 0.35549703
0.23382021 -0.10075221 0.36731705
0.21797684 -0.08907901 0.39025265
0.25631964 -0.09516647 0.33323419
0.25003558 -0.07518924 0.35881400
0.26221412 -0.06359463 0.33071116
0.17135154 -0.08575092 0.45122185
0.18573374 -0.09067363 0.42533869
0.15943331 -0.06648348 0.49114993
0.20361221 -0.06426526 0.45313573
0.22295700 -0.06059444 0.41838476
0.25273466 -0.03090880 0.44094378
0.23653853 -0.06311683 0.39043027
0.26419890 -0.03920262 0.36318365
0.25566709 -0.03874631 0.39211217
0.27725014 -0.01325336 0.42006862
0.29581282 0.00382767 0.40082887
0.26204997 -0.07736045 0.28793642
0.27021253 -0.03462986 0.30244097
0.28203246 -0.01963860 0.34178290
0.30230775 0.00641765 0.36946100
0.30557665 0.00869633 0.33897942
0.25570279 -0.12529048 0.13927028
0.25581539 -0.09469999 0.11095939
0.25803944 -0.09843166 0.16949242
0.25478059 -0.07359900 0.14713176
0.25466779 -0.06422352 0.08298770
0.25349978 -0.03154409 0.08073667
0.25065041 -0.04072715 0.14364389
0.25461674 -0.07212200 0.20130451
0.24997674 -0.04199011 0.17429931
0.25366995 -0.04562620 0.23237522
0.25072327 -0.00004110 0.19076484
0.25143903 0.00599126 0.10188713
0.24837078 0.01705851 0.14775711
0.25017530 -0.01878758 0.04180200
0.24670663 0.01145734 0.01447500
0.25126731 0.02324095 0.05822613
0.24698254 0.05340712 0.03112333
0.24169217 0.04155310 -0.01242732
0.23853756 0.07326573 -0.01341577
0.23078877 0.07306008 -0.06728277
0.23228054 0.09983737 -0.03682850
0.24892460 0.04741212 0.09181555
0.24580652 0.07993358 0.06231818
0.24541920 0.07590373 0.12151513
0.24192175 0.10614587 0.09419604
0.24038020 0.09666303 0.02008549
0.23375076 0.13993254 0.00906757
0.23916847 0.12319923 0.05130543
0.23056689 0.16621247 0.04075287
0.26405492 -0.03091959 0.27238402
0.26130447 -0.00294657 0.24702485
0.28803700 0.00066167 0.29426503
0.27831224 0.01828861 0.26505885
0.25675085 0.02719366 0.21999592
0.25147572 0.04394528 0.17771468
0.26903716 0.05094203 0.24276742
0.25645366 0.06712037 0.20264694
0.30810720 0.03265894 0.30205315
0.29327324 0.05534180 0.27035615
0.31981170 0.05397614 0.32223219
0.31772023 0.03652126 0.36653024
0.31402913 0.08399778 0.29554087
0.27758935 0.08441559 0.24637805
0.25993493 0.10003106 0.20758125
0.27356285 0.12793325 0.23464783
0.29931498 0.11316514 0.27129635
0.28525880 0.15545109 0.26201579
0.05699345 0.18555075 0.13025887
0.06611270 0.18632932 0.16372561
0.09606791 0.19090460 0.12135874
0.11741865 0.19330990 0.14775307
0.13559467 0.19608754 0.11404490
0.17028733 0.20037548 0.10364416
0.16185139 0.19908854 0.13416702
0.11321223 0.19202153 0.26065895
0.15149762 0.19715546 0.24880940
0.12533443 0.19387405 0.22892925
0.16358064 0.19912542 0.21697837
0.09918838 0.19054125 0.20909344
0.11135954 0.19224696 0.17749044
0.06163578 0.18511990 0.22354722
0.13744684 0.19575593 0.19717422
0.17068909 0.19984935 0.16660270
0.20899916 0.20463614 0.23122513
0.21507782 0.20284538 0.17621788
0.25033918 0.08774180 0.16519049
0.24192937 0.13279974 0.12508100
0.25381634 0.13002028 0.18098226
0.24491338 0.15974081 0.15514824
0.23599184 0.14651106 0.07954836
0.22984156 0.17750505 0.08597986
0.22476737 0.18837644 0.13240303
0.19656169 0.20094682 0.12600996
0.27000678 0.17149630 0.22278835
0.25197402 0.18700929 0.18401904
0.24922378 0.20395644 0.22439231
0.18342374 -0.03500527 0.51298726
0.21783870 -0.03992162 0.48351967
0.18846221 0.00083969 0.53443909
0.22031052 -0.00941366 0.51024580
0.25529334 -0.01064375 0.47712642
0.25693738 0.02794982 0.49666601
0.28832930 0.02100020 0.45548072
0.28544524 0.05606753 0.46537483
0.16747577 0.01810404 0.55013382
0.20382906 0.02905988 0.53325856
0.16358215 0.06220298 0.55145037
0.20118187 0.06015749 0.53454560
0.17937529 0.08561407 0.54061681
0.17301491 0.13279893 0.53403854
0.21592842 0.09626431 0.52439958
0.21109082 0.13317442 0.51975518
0.23798937 0.05420911 0.51342416
0.26558888 0.06747806 0.48627353
0.27980754 0.09685677 0.45110556
0.25007033 0.09205877 0.49418783
0.23923850 0.12216813 0.49611992
0.31129727 0.04719881 0.41324541
0.30038616 0.06527814 0.43841445
0.25549787 0.12570034 0.46206942
0.27103174 0.13199937 0.43150577
0.26262027 0.16895840 0.41387010
0.24340282 0.15314960 0.46669587
0.24642953 0.18296573 0.43636113
0.23173593 0.18057421 0.47112823
0.14109196 0.19451608 0.36301488
0.12957248 0.19236487 0.39683348
0.11802990 0.19014548 0.43058199
0.16755652 0.19775580 0.38397738
0.17669167 0.19837901 0.41744739
0.14348108 0.19354427 0.44787383
0.18468489 0.19876283 0.44667679
0.17959549 0.19985789 0.35203233
0.20766743 0.20280348 0.37874225
0.21920040 0.20502195 0.34499636
0.24503326 0.20530769 0.36262199
0.24477872 0.20112264 0.39430743
0.22095047 0.20111819 0.42649943
0.32327577 0.08096354 0.35216755
0.31171960 0.10643558 0.38615298
0.31845334 0.11107782 0.32521245
0.29649717 0.10300343 0.41991857
0.29508317 0.13344662 0.39202708
0.30653232 0.13651466 0.35929814
0.30536178 0.14040175 0.30052215
0.29459256 0.17131492 0.30156180
0.29746372 0.16622679 0.33350262
0.29042396 0.16357666 0.36502716
0.27594993 0.20376876 0.32160726
0.27053985 0.19028190 0.37178650
0.10543826 0.19038405 0.30829135
0.07783321 0.18697864 0.28315726
0.13933134 0.19543506 0.28042507
0.11352348 0.19124615 0.33802363
0.15259795 0.19660001 0.32912350
0.17761673 0.20056900 0.26857555
0.16548103 0.19864921 0.30023247
0.20381294 0.20364366 0.28850329
0.19162218 0.20199668 0.32005563
0.22996388 0.20696178 0.30835178
0.28260034 0.18561290 0.26293311
0.24199648 0.20811340 0.27604973
0.16591236 0.17628366 0.52345920
0.18878497 0.15614182 0.52313489
0.13401386 0.19092049 0.48903444
0.19875027 0.18999211 0.49479300
0.17298998 0.19573706 0.47954971
-0.36935911 0.04572984 0.06931565
-0.38107190 0.10181334 0.07511698
-0.36978123 0.05703187 0.11443641
-0.34536469 0.12320048 0.02096061
-0.35325727 0.12154539 -0.00834898
-0.35930264 0.11920454 0.05499559
-0.36828122 0.08380336 0.14488077
-0.35819340 0.11535793 0.11382797
-0.32863790 0.12593919 0.08280662
-0.31766802 0.12715946 0.12316464
-0.35566717 0.11167368 0.17230234
-0.32945305 0.12429617 0.15576655
-0.30427921 0.12903532 0.17255759
-0.31370106 0.12930097 -0.01465208
-0.26988009 0.13672456 -0.00554832
-0.29738712 0.13173681 0.04558485
-0.30553600 0.13055925 0.01551004
-0.23835441 0.14186658 0.03450434
-0.23898339 0.14229913 -0.04417520
-0.21308172 0.14634298 -0.02497913
-0.20112650 0.14871764 -0.05713323
-0.22516096 0.14435087 0.00685793
-0.19904365 0.14835158 0.02682370
-0.18753521 0.15044969 -0.00705374
-0.28111929 0.13394466 0.10557382
-0.28922743 0.13296820 0.07571787
-0.24987094 0.13972810 0.06833813
-0.29192671 0.13170564 0.14195341
-0.26609802 0.13588211 0.16093040
-0.23363550 0.14177449 0.12815250
-0.22325398 0.14388987 0.09017923
-0.21056019 0.14621310 0.06065750
-0.18535198 0.15020287 0.07731041
-0.19034059 0.14861803 0.13509975
-0.15508565 0.15443410 0.11245924
-0.17328241 0.15221320 0.04544454
-0.15617763 0.15561473 -0.04410896
-0.16450752 0.15469974 -0.07475044
-0.12515537 0.16078319 -0.08238355
-0.14828397 0.15668485 -0.01500090
-0.16129048 0.15447776 0.01338545
-0.11119336 0.16241652 -0.03098937
-0.09920326 0.16467582 -0.06305699
-0.06114240 0.17048286 -0.07548738
-0.05026992 0.17170426 -0.03548350
-0.08527111 0.16639870 -0.01174009
-0.14356641 0.15658604 0.07863999
-0.13208741 0.15853541 0.04460314
-0.09285102 0.16469656 0.03657596
-0.11586276 0.16052797 0.10435931
-0.10433003 0.16274719 0.07061282
-0.07634680 0.16660511 0.09732023
-0.06512062 0.16877379 0.06244015
-0.05364162 0.17072317 0.02840329
-0.03582412 0.17311814 0.05614988
-0.00717430 0.17739882 0.04687678
-0.12054253 0.16081516 0.01092211
-0.04213858 0.17279437 -0.00550325
-0.22552304 0.14277041 0.15803091
-0.12735501 0.15851060 0.13832405
-0.09511455 0.16340292 0.13153081
-0.03743046 0.17264846 0.08808672
-0.04893620 0.17056380 0.12197872
-0.00978078 0.17632130 0.11351506
0.00173846 0.17847323 0.07969581
-0.01604526 0.17694625 -0.06207578
-0.00772644 0.17847744 -0.10780021
0.02909956 0.18328565 -0.04857211
0.04116079 0.18534248 -0.08045194
0.03139795 0.18408021 -0.11643118
0.07241063 0.18981788 -0.11814155
0.06714389 0.18866824 -0.06121172
0.09811265 0.19305982 -0.09995388
0.11069945 0.19494154 -0.12998222
0.10618731 0.19386736 -0.07027917
0.03099875 0.18289922 0.03470916
0.00507802 0.17929214 0.01563507
0.04310430 0.18480167 0.00293640
0.09137574 0.19113198 0.02785544
0.05712983 0.18616916 0.05446842
0.08133215 0.19010809 -0.00906199
0.12666349 0.19588013 0.00495927
-0.00299395 0.17849806 -0.01402510
0.05568942 0.18683922 -0.02704330
0.09475578 0.19215271 -0.03598707
0.13179532 0.19692792 -0.05249742
0.16125053 0.20003574 -0.02069554
0.22358105 0.11625908 -0.07815571
0.21366972 0.14588308 -0.10371341
0.22423752 0.14295577 -0.04747195
0.21481279 0.16612968 -0.06715490
0.13690291 0.19809143 -0.11000166
0.16753785 0.19972403 -0.15092793
0.17698385 0.19955754 -0.09105188
0.20177722 0.18346930 -0.10851292
0.20517321 0.16233099 -0.14508873
0.22517376 0.16968605 -0.01685741
0.20591125 0.19812270 -0.01181458
0.21501938 0.19529335 0.01674291
0.17220391 0.20091765 0.01948357
0.14514303 0.19862919 -0.07981946
0.19147506 0.19787854 -0.06444676
0.00373612 0.18034682 -0.14192499
0.04286186 0.18595631 -0.15054868
0.08454312 0.19166109 -0.14983705
0.12284907 0.19673337 -0.16163339
0.02934766 0.18194425 0.10490592
0.08319973 0.18973024 0.07410724
0.10937002 0.19299036 0.09400576
0.14069270 0.19723661 0.05650080
0.18541221 0.20214964 0.06799334
