20.539101 186.733994 411.753998 
20.539101 186.873001 410.932007 
20.690100 186.873001 410.286987 
20.201700 186.850006 405.825989 
20.539101 186.835999 407.351990 
20.539101 186.873993 408.056000 
20.677700 186.873993 408.819000 
20.539101 186.800003 405.885010 
22.006399 186.677994 404.417999 
20.930300 186.959000 401.992004 
22.006399 186.671005 402.950012 
22.006399 186.675003 401.483002 
20.459999 187.891006 398.200012 
22.006399 186.878998 399.272003 
22.006399 187.542007 395.614014 
23.473600 186.397003 400.015991 
23.216600 186.880005 396.589996 
23.473600 186.528000 398.548004 
24.940901 186.292007 398.548004 
20.607500 188.296005 395.194000 
24.940901 186.438995 397.080994 
24.316900 186.889999 394.247009 
24.940901 186.591995 395.614014 
21.187599 188.332001 392.832001 
24.641001 187.078995 392.941986 
26.408100 186.511002 394.147003 
26.408100 186.770996 392.679993 
26.408100 186.882004 392.285004 
26.408100 187.287003 391.213013 
26.408100 187.830994 389.746002 
24.641701 188.334000 389.553986 
26.389099 188.138000 388.338013 
27.875299 187.511993 388.278015 
25.212700 188.634995 386.868988 
26.408100 188.216003 386.811005 
25.368200 188.654007 384.273010 
26.408100 188.255005 385.343994 
26.408100 188.352997 384.389008 
26.555901 188.742004 381.351013 
27.875299 188.175995 380.941986 
27.875299 188.003998 382.408997 
27.178900 188.354004 382.410004 
27.875299 188.246002 379.475006 
27.762100 188.356003 378.007996 
27.875299 188.300995 378.007996 
52.818501 161.513000 357.453003 
54.285702 162.108002 355.412994 
54.285702 161.459000 358.920990 
52.818501 161.737000 355.985992 
52.818501 161.957001 354.635010 
52.818501 161.973007 354.519012 
55.752998 160.485001 364.936005 
55.752998 160.511993 364.789001 
57.220200 160.585999 364.789001 
57.220200 160.485001 365.260986 
55.752998 160.783005 363.321991 
57.263100 161.128998 362.522003 
58.687500 160.789001 363.321991 
58.687500 160.225006 366.256012 
57.220200 160.285995 366.256012 
60.278702 160.041000 364.398010 
60.154701 159.906006 366.256012 
54.285702 160.940994 361.855011 
55.752998 161.317001 361.121002 
54.285702 161.197006 360.388000 
57.226601 161.996994 359.229004 
58.687500 161.065994 361.855011 
60.144501 160.414993 361.117004 
58.671200 161.311005 360.320007 
61.622002 159.591003 364.789001 
61.622002 159.651993 363.321991 
61.622002 159.744003 361.121002 
63.089199 159.462006 361.854004 
63.089199 159.556000 358.186005 
64.556503 159.451996 360.386993 
55.940201 161.940994 358.750000 
60.540901 160.488007 358.187012 
58.636799 161.979004 355.583008 
61.760502 160.175003 355.381989 
60.346100 161.054001 354.458008 
57.205700 162.339996 356.498993 
55.752998 162.360001 355.987000 
55.788200 162.593002 354.242004 
57.168800 162.479996 353.878998 
61.622002 159.942001 358.186005 
64.556503 159.462997 358.920013 
64.556503 159.472000 357.451996 
63.089199 159.662003 355.252014 
64.556503 159.481995 355.984985 
64.556503 159.492996 354.518005 
52.818501 162.181000 353.052002 
54.285702 162.591995 352.319000 
52.818501 162.358994 351.584991 
52.818501 162.514999 350.118011 
54.285702 163.063004 347.916992 
52.818501 162.677994 348.651001 
52.818501 162.862000 347.183014 
52.818501 163.057999 345.716003 
54.285702 163.701996 342.782013 
52.818501 163.261993 344.248993 
52.818501 163.429993 343.040985 
52.818501 163.462006 342.782013 
52.818501 163.641998 341.315002 
54.285702 163.925003 340.580994 
52.818501 163.830994 339.847992 
52.818501 164.035004 338.380005 
54.285702 164.483994 336.546997 
52.818501 164.214996 336.912994 
52.818501 164.386993 335.446014 
52.818501 164.608002 333.979004 
54.336800 165.054993 332.651001 
53.070702 164.903000 332.511993 
58.406898 161.972000 352.061005 
61.622002 160.317993 352.316986 
61.622002 160.369995 350.117004 
60.154701 161.225006 347.915985 
58.687500 161.884003 347.916992 
55.752399 163.005997 350.563995 
57.210201 162.645004 350.415009 
55.752998 163.089005 348.651001 
63.089199 159.737000 352.316986 
64.556503 159.503006 353.050995 
64.556503 159.524994 350.850006 
66.023697 159.468002 351.583008 
63.089199 159.807007 349.382996 
66.023697 159.481995 350.115997 
64.556503 159.639999 345.714996 
66.023697 159.496002 348.648987 
58.687500 161.901993 344.981995 
57.220200 162.598999 346.450012 
60.966702 161.029007 342.946014 
58.610901 161.925003 341.476013 
55.691101 163.309998 345.123993 
57.220200 162.634995 344.248993 
55.763199 163.479004 341.407990 
63.089199 160.044998 344.980988 
66.023697 159.503006 347.182007 
66.023697 159.511002 345.713989 
63.122700 160.149994 341.971985 
66.023697 159.514008 344.247009 
64.547203 159.703995 341.760986 
66.023697 159.516006 342.779999 
61.233398 161.042999 341.470001 
58.687500 162.242996 338.380005 
60.131599 161.658005 339.141998 
60.154701 161.940002 335.770996 
56.730099 163.139999 339.846985 
55.752998 164.033005 337.647003 
57.220200 163.453003 335.593994 
61.618401 161.154007 339.795990 
66.023697 159.539993 341.312988 
64.556503 159.903000 339.846008 
66.023697 159.617996 339.845001 
61.622002 161.417999 338.378998 
64.524902 160.313995 338.226990 
61.622002 161.666000 336.911987 
63.089199 161.380997 336.911987 
66.023697 159.847000 338.377991 
65.843803 160.421997 336.895996 
55.752998 164.421005 334.713013 
57.220200 163.906006 332.510986 
58.687500 162.626007 334.712006 
55.505699 164.876999 332.509003 
55.752998 164.906998 331.087006 
58.687500 163.016006 331.411011 
60.154701 162.195007 332.510986 
60.154701 162.337006 330.309998 
61.554298 161.983994 334.713989 
63.088299 161.964996 335.444000 
64.556503 161.718994 335.445007 
66.023697 161.294998 335.445007 
64.556503 161.966995 335.059998 
65.956001 162.332001 334.062988 
63.089199 162.376007 333.977997 
64.556503 162.533997 333.977997 
61.622002 162.117004 332.510010 
63.089199 162.531006 332.510986 
61.622002 162.184998 329.575989 
62.987701 162.528000 330.566010 
64.556503 162.981003 332.510986 
66.023697 163.192001 332.510986 
65.238899 163.408997 330.920990 
66.023697 163.436005 331.824005 
67.490898 160.231995 336.911011 
67.490898 160.498993 336.380005 
67.490898 161.085999 335.444000 
67.438797 162.268005 333.944000 
68.958199 161.966995 334.388000 
68.958199 162.326996 333.977997 
68.721497 163.621994 332.433990 
67.490898 164.171005 331.044006 
68.985497 164.835999 330.817993 
70.425400 163.434998 332.806000 
70.425400 163.710999 332.510986 
70.424698 164.884995 330.957001 
71.892700 164.595993 331.044006 
52.818501 164.903000 332.105988 
52.818501 165.026001 331.045013 
57.220200 164.906006 324.790985 
60.154701 162.569000 328.109009 
59.219799 163.438995 325.541992 
60.246498 162.820007 325.644012 
61.592499 162.255005 327.824005 
63.089199 162.440002 328.109009 
65.733902 163.645004 329.700989 
65.073402 163.182007 328.083008 
63.089199 162.322006 326.641998 
61.622002 162.356995 325.174011 
63.089199 162.184998 325.174011 
64.823402 162.796997 326.640015 
64.556503 162.382996 325.174011 
66.023697 162.968002 325.174988 
60.154701 163.102005 323.707001 
60.154701 163.440994 321.018005 
57.220200 165.686996 320.040985 
60.489799 163.442001 319.306000 
58.687500 164.964996 318.171997 
63.084301 161.931000 322.920990 
64.556503 161.755997 322.239990 
64.572800 162.009995 323.497986 
67.353302 162.016006 321.835999 
62.986301 161.873993 320.622986 
64.556503 161.619995 320.772003 
66.023697 161.595001 320.772003 
64.556503 161.634995 319.304993 
66.673103 161.431000 319.388000 
61.622002 162.384995 323.707001 
61.622002 162.427994 322.239990 
66.023697 162.429993 323.707001 
61.622002 162.600998 320.039001 
68.534103 165.154007 329.546997 
67.872498 164.865997 328.069000 
71.892700 164.904007 330.325012 
70.467796 165.149994 327.881012 
71.892700 164.735992 328.109985 
71.892700 164.904007 328.559998 
67.372803 163.598007 324.990997 
67.490898 164.283005 326.643005 
68.953102 164.858002 326.933014 
68.936996 163.798996 324.904999 
70.482201 163.421005 324.881012 
71.892700 162.908005 325.174988 
71.892700 163.438995 325.917999 
70.423401 164.796005 327.065002 
71.892700 163.947998 326.641998 
68.981697 162.106003 321.924011 
70.425400 161.800995 322.239990 
70.425400 161.973007 322.545990 
67.490898 161.638000 320.772003 
68.958199 161.585999 320.772003 
68.958199 161.067993 319.304993 
70.425400 161.132996 320.772003 
70.425400 160.643997 319.304993 
70.425400 162.667999 323.707001 
58.687500 165.572998 314.904999 
61.622002 162.886002 317.838013 
60.307098 165.022003 310.502991 
61.740700 163.444000 313.964996 
63.686501 161.975998 317.104004 
65.865601 161.524002 317.515991 
64.744301 161.895004 314.260986 
66.276802 161.658005 313.803009 
63.089199 162.429001 315.270996 
66.363602 162.024002 311.733002 
62.990299 162.959000 312.015991 
61.573002 164.343002 309.579987 
63.264000 163.393997 309.684998 
64.556503 162.337997 311.968994 
64.556503 162.725998 310.502014 
66.023697 162.462997 310.502014 
59.783001 165.897995 308.303009 
63.089199 164.164993 307.567993 
64.530998 164.018997 306.898010 
66.023697 163.276001 308.407990 
67.490898 161.203995 317.838013 
69.464996 160.639999 317.834991 
67.475998 161.335999 315.665985 
68.979897 160.817993 316.292999 
70.425400 160.291000 317.837006 
70.425400 160.507996 318.833008 
70.425400 160.192001 316.369995 
68.714996 161.343002 313.410004 
70.425400 160.399002 314.903015 
70.425400 160.509995 314.466003 
69.937897 161.406998 311.912994 
71.068100 160.509995 313.434998 
71.892700 160.511002 312.562988 
71.892700 160.792007 311.967987 
71.892700 161.431000 310.501007 
70.062202 162.434998 309.049011 
68.041496 163.139008 308.218994 
73.432701 162.337997 307.752991 
72.259003 161.979996 309.033997 
73.359901 161.979996 308.510010 
73.359901 161.703003 309.033997 
74.827202 161.979996 307.681000 
74.992203 161.979996 307.566986 
61.622002 165.309006 306.101990 
63.089199 164.759995 305.546997 
66.236000 164.472000 305.138000 
63.089298 165.578995 302.519012 
64.732201 164.949005 303.635010 
67.603897 164.854996 302.766998 
68.553398 164.119995 305.993011 
68.932297 164.552002 304.638000 
71.206703 163.845001 305.795990 
71.156799 164.395004 304.627014 
71.538300 164.677002 303.183014 
69.820099 164.875000 301.242004 
74.343498 164.679993 300.927002 
73.371300 163.962997 304.656006 
74.827202 162.750000 306.100006 
74.884598 163.473007 304.665985 
76.294403 162.822006 304.632996 
74.428497 164.488998 302.352997 
74.836700 164.130005 303.161011 
76.294403 163.449005 303.329010 
76.433800 163.449997 303.165985 
76.294403 164.029999 301.699005 
77.436501 163.449997 301.699005 
72.626297 164.770004 300.231995 
71.892700 164.815994 298.032013 
74.827202 164.654007 298.031006 
77.761703 163.451004 301.003998 
77.761703 163.268005 301.699005 
76.510101 164.235001 300.027008 
76.294403 164.462006 298.031006 
74.093498 164.764008 295.830994 
72.626297 164.869995 294.329987 
77.761703 164.093002 296.563995 
76.322701 164.643997 294.841003 
77.761703 164.244003 294.363007 
76.294403 164.572006 292.895996 
77.761703 164.222000 292.895996 
70.425400 165.182007 291.428986 
74.283401 164.718002 291.584015 
72.779404 164.931000 288.917999 
75.873802 164.384995 289.989990 
77.925102 163.968994 290.348999 
74.552696 164.569000 287.618011 
73.326103 164.904007 286.713013 
77.761703 164.078003 287.760010 
74.061996 164.860992 285.481995 
76.301399 164.371002 285.485992 
78.495300 164.041000 284.092010 
77.761703 164.317001 282.625000 
74.812202 164.934006 284.235992 
52.818501 165.201996 329.578003 
54.285702 165.684998 327.377014 
52.818501 165.386002 328.109985 
52.818501 165.556000 326.643005 
52.818501 165.720001 325.175995 
54.285702 166.117004 323.709015 
52.818501 165.906006 323.709015 
52.818501 166.139008 322.242004 
52.818501 166.375000 320.925995 
52.818501 166.404007 320.774994 
54.285702 166.593994 320.774994 
52.818501 166.649994 319.307007 
54.280499 167.126999 317.287994 
52.818501 166.893997 317.839996 
52.818501 167.184006 316.372986 
52.818501 167.542007 314.906006 
54.297600 168.242996 312.820007 
52.818501 167.845993 313.792999 
52.818501 167.931000 313.438995 
52.818501 168.270004 311.971985 
52.818501 168.565002 310.505005 
52.818501 168.832001 309.037994 
54.285702 168.938004 309.037994 
52.818501 169.138000 307.571014 
54.285702 169.264008 307.571014 
55.752998 165.843994 323.709015 
55.700298 166.376007 320.653015 
55.752998 166.666000 318.574005 
68.958199 165.186005 328.109985 
70.443398 165.319000 329.578003 
72.260696 164.904007 329.576996 
57.220200 166.664993 314.450989 
55.752998 167.223999 315.640015 
55.703300 167.789001 313.286987 
56.833801 167.455002 311.238007 
57.014000 167.854996 308.345001 
55.752998 168.391006 309.770996 
55.752998 168.824997 307.571014 
59.242001 167.117004 305.248993 
57.093201 169.199997 302.623993 
60.117100 167.274002 301.985992 
54.285702 169.317001 307.338013 
55.634300 169.300003 305.778015 
54.285702 169.587006 306.104004 
54.285702 169.837006 304.636993 
54.285702 170.074005 303.169006 
55.752998 170.095001 301.701996 
54.285702 170.358994 301.701996 
61.515598 165.975006 303.532013 
61.615799 166.550003 301.679993 
65.373596 165.507004 300.727997 
67.026604 165.192993 300.639008 
55.752998 170.410995 300.234985 
54.285702 170.647995 300.234985 
57.574902 169.647003 299.917999 
54.285702 170.787994 299.515991 
55.696999 170.792007 298.742004 
57.220200 170.259995 298.768005 
59.270401 169.046005 298.971008 
57.273701 171.199997 296.272003 
58.687500 170.113007 297.300995 
62.030800 168.005005 297.362000 
58.604099 170.653000 295.773987 
61.335602 168.927002 295.144989 
64.261803 166.063004 300.105988 
62.238499 167.507996 298.699005 
65.654900 166.222000 297.299011 
66.023697 165.787994 298.765991 
63.847801 167.695007 294.213013 
65.983002 166.634003 294.203003 
54.285702 170.908997 298.768005 
54.285702 171.169006 297.300995 
55.752998 171.177994 297.300995 
54.285702 171.457001 295.834015 
55.752998 171.565002 295.834015 
68.008904 165.248993 298.738007 
67.490898 165.630997 296.565002 
68.958199 165.240997 296.565002 
70.425400 165.102005 294.364014 
58.687500 171.511002 292.165985 
61.995399 169.343994 291.502991 
60.154701 171.037003 290.140015 
63.763199 167.940994 293.011993 
66.869904 166.294006 291.445007 
64.581596 167.725006 290.381012 
66.849602 166.585999 289.763000 
62.720299 169.115005 289.966003 
64.717003 168.184998 288.376007 
65.263199 168.880997 285.649994 
61.370201 170.929001 286.634003 
63.275700 169.179001 288.010010 
62.793900 170.192001 285.790009 
62.657799 170.712006 284.029999 
64.837196 169.688995 283.467010 
54.285702 171.735992 294.367004 
55.782398 172.102997 293.631012 
54.285702 171.972000 292.899994 
57.246700 172.358994 291.652008 
54.620300 172.259003 291.433014 
55.752998 172.438004 291.433014 
54.285702 172.259003 290.795990 
54.285702 172.354996 289.964996 
59.094700 172.371994 287.694000 
54.285702 172.529999 288.497986 
55.752998 172.880997 287.398010 
57.220200 172.934998 287.765015 
54.285702 172.714005 287.031006 
58.687500 172.710007 287.031006 
54.285702 172.914001 285.563995 
57.220200 173.259995 285.563995 
54.285702 173.132004 284.096985 
55.752998 173.386993 283.363007 
60.154701 172.175995 285.101990 
58.687500 173.220993 283.363007 
60.230099 172.690002 280.226990 
67.498398 165.940002 294.022003 
68.958199 165.403000 294.364014 
68.897301 165.600006 290.420013 
71.313004 165.205994 289.087006 
70.447899 165.610001 288.334991 
68.226898 167.544998 285.565002 
71.879097 165.406006 287.018005 
70.425400 166.393005 286.075012 
72.519798 165.608994 285.199005 
69.569000 167.417007 283.989014 
78.050301 163.451004 300.231995 
78.470703 163.451996 298.764008 
79.228897 163.320999 295.829987 
79.228897 163.147995 297.296997 
78.792999 163.451996 297.296997 
79.228897 163.445007 294.363007 
79.228897 163.453995 294.217010 
78.945396 163.660995 292.246002 
79.352402 163.455002 292.895996 
79.491402 163.455002 291.428009 
79.228897 163.643997 289.227997 
79.652702 163.455994 289.960999 
80.004997 163.457001 288.493988 
80.696098 163.238007 288.493988 
80.696098 163.069000 289.960999 
80.696098 163.406006 287.027008 
79.228897 163.834000 286.292999 
80.696098 163.457993 286.531006 
81.150497 163.542007 284.092010 
82.163399 163.348007 284.092010 
82.163399 163.225998 285.558990 
81.097801 163.457993 285.558990 
76.577599 164.895996 281.837006 
62.873699 170.789993 282.569000 
64.556503 170.039001 281.161011 
67.287300 168.809998 282.282990 
66.792000 169.195999 281.184998 
63.109001 170.809006 279.694000 
66.134903 169.516006 280.131989 
64.556503 170.192001 277.493011 
66.023697 169.651993 275.291992 
64.200600 170.619995 275.658997 
66.023697 169.828995 273.824005 
64.905800 171.091995 270.928986 
66.023697 170.089005 272.356995 
54.285702 173.371002 282.630005 
57.220200 173.731003 281.584015 
54.285702 173.628998 281.162994 
57.176998 174.108002 278.894012 
58.645199 173.681000 279.488007 
54.285702 173.731003 280.612000 
59.789101 173.408005 278.101013 
54.285702 173.884003 279.695007 
55.752998 174.216995 277.862000 
54.285702 174.095001 278.227997 
61.622002 171.776993 279.694000 
63.089199 171.214996 276.760010 
54.285702 174.272995 276.760986 
57.220200 174.630997 276.028015 
54.285702 174.423996 275.294006 
55.752998 174.768997 273.459991 
58.687500 174.485992 276.028015 
60.345901 174.117996 274.117004 
54.285702 174.569000 273.826996 
57.220200 175.227997 272.505005 
54.285702 174.723999 272.359985 
58.723701 175.199997 272.750000 
60.083099 174.598007 271.944000 
62.903099 172.304001 272.523010 
61.541901 173.501999 271.739014 
73.617203 166.153000 282.072998 
71.652603 167.253006 280.872009 
69.691803 168.472000 278.959015 
73.359901 166.983994 277.490997 
70.425400 168.485992 276.757996 
68.224602 169.039993 277.492004 
74.210403 166.177002 280.912994 
76.294403 165.563004 279.691010 
77.028000 165.621002 277.490997 
74.423897 166.832993 275.278992 
78.689903 165.009003 277.467010 
71.826202 168.020004 275.759003 
67.490898 169.145004 275.290985 
68.958199 168.865997 275.290985 
70.588699 168.559006 275.003998 
67.308899 169.250000 273.669006 
68.958199 168.800995 272.356995 
72.223099 168.061996 273.608002 
77.455803 165.774002 274.500000 
74.827202 166.781006 273.822998 
74.827202 166.860992 270.888000 
76.294403 166.179001 273.088989 
65.960899 170.800995 268.833008 
66.012001 170.800003 262.378998 
64.556503 171.654999 261.354004 
67.490898 170.229996 260.252991 
54.285702 174.893005 270.891998 
57.246601 175.608994 270.131012 
55.122002 175.203995 269.424988 
54.285702 175.070999 269.424988 
58.861099 175.442001 270.529999 
60.154701 174.699997 268.691010 
54.285702 175.205002 268.329987 
54.285702 175.248993 267.958008 
57.220200 175.835999 267.958008 
54.285702 175.412003 266.490997 
60.154701 174.787994 264.290009 
58.687500 175.587006 267.225006 
57.220200 175.936996 265.757996 
64.126297 171.832001 269.368011 
63.089199 172.641006 267.957001 
64.556503 171.688004 265.022003 
66.016197 170.951996 265.989014 
54.285702 175.544998 265.023987 
55.752998 175.848999 264.290009 
54.285702 175.664993 263.557007 
57.220200 176.069000 262.822998 
58.687500 175.623993 263.557007 
54.285702 175.789993 262.089996 
55.752998 176.216995 259.889008 
54.285702 175.912994 260.622009 
62.425701 173.151001 264.656006 
61.622002 173.837006 262.088989 
60.043999 174.970993 259.888000 
67.720299 169.447998 270.890015 
70.304703 168.561996 269.463013 
68.602501 169.533997 268.109009 
71.469101 168.197006 270.365997 
73.359901 167.481003 270.154999 
68.290298 169.820007 266.434998 
70.425400 168.561996 267.954987 
72.801903 167.429993 266.765015 
71.671700 167.873993 266.493011 
75.560799 166.548996 269.420990 
77.761703 165.727005 269.420990 
75.430199 166.542999 266.562012 
78.401901 165.565002 266.010010 
67.892502 170.018005 263.826996 
69.871498 168.968994 264.782990 
69.375603 169.350006 263.613007 
71.943604 167.886002 264.545990 
69.596199 169.475998 262.346985 
68.958199 169.807999 260.618988 
73.614403 167.847000 261.246002 
71.999496 168.826996 259.967010 
70.873199 169.181000 260.231995 
72.958397 167.483994 264.640015 
75.059402 166.832993 264.993988 
77.484100 165.934998 265.066010 
75.560799 167.106003 261.351990 
75.575203 167.412994 259.454010 
78.859802 166.416000 259.933990 
73.358398 168.464996 259.160004 
66.060799 170.824997 258.419006 
54.285702 176.018005 259.154999 
54.285702 176.108994 257.687988 
57.220200 176.522995 256.221008 
58.687500 175.873993 258.420990 
54.285702 176.210007 256.221008 
55.752998 176.580994 254.753998 
54.285702 176.311996 254.753006 
57.212502 176.651993 253.311996 
58.687500 175.994995 255.487000 
60.873501 174.550003 254.753006 
63.677700 172.274994 259.153015 
62.388599 173.307007 257.320007 
64.469299 171.770004 257.368011 
66.175903 170.884995 256.217987 
62.372898 173.759995 252.550995 
66.296700 170.964005 254.751007 
54.285702 176.391998 253.285995 
55.752998 176.822006 251.085999 
54.285702 176.460007 251.819000 
58.704399 176.089996 253.300995 
57.861000 176.667999 251.781006 
54.285702 176.535995 250.352005 
55.752998 176.998993 248.884995 
54.285702 176.643005 248.884995 
58.687500 176.615005 248.518005 
60.154701 175.539993 250.350998 
65.011902 172.279007 251.082993 
61.305500 174.972000 248.716995 
65.156601 172.494995 248.882996 
67.490898 170.334000 255.483994 
68.958199 169.794998 256.950989 
73.359901 168.656006 257.683990 
70.594902 169.345993 255.850998 
68.958199 169.828995 254.016998 
76.294403 167.216003 259.151001 
74.958099 168.289001 256.342987 
76.385498 168.369003 253.755005 
77.768303 168.074005 252.820999 
78.603600 167.134995 256.307007 
74.107903 168.649002 254.789993 
73.359901 168.843994 253.283005 
68.958199 169.960007 251.815994 
70.773300 169.462006 251.082001 
71.644699 169.345993 247.414001 
67.490898 170.811005 250.623001 
67.907799 170.832001 247.806000 
68.958199 170.268005 247.414001 
70.425400 169.660995 248.147995 
73.359901 168.942993 251.082001 
75.017601 168.822998 251.300995 
76.296097 168.641006 251.472000 
74.093498 168.897003 248.147003 
77.761703 168.205994 249.613998 
76.294403 168.559006 248.147003 
54.285702 176.682007 248.455002 
58.783600 176.802994 245.845993 
60.736698 175.421997 245.949997 
60.888302 175.056000 242.281006 
58.484901 176.619003 241.507004 
62.799400 174.009003 247.391006 
62.940601 173.647003 243.748001 
64.556503 172.615005 243.746994 
65.316704 172.369003 246.179993 
58.931499 176.871994 235.651993 
60.888302 175.089005 240.080002 
60.154701 176.220993 234.212006 
64.624100 172.464005 240.597000 
63.089199 173.516998 240.080002 
66.045303 171.639999 240.481995 
64.175499 172.966003 238.072006 
66.825699 171.315002 238.619995 
66.603104 171.695999 236.882996 
61.387901 175.050995 237.145996 
67.489304 171.119995 245.375000 
69.038399 170.350006 244.298004 
70.425400 169.751007 245.212997 
71.805000 169.334000 243.746002 
75.194000 168.651993 245.212997 
70.389603 169.598999 240.606995 
74.093498 168.884995 245.945999 
78.218803 168.082001 247.451996 
76.674599 168.166000 243.996002 
74.827202 168.656998 242.278000 
68.817398 170.242996 240.231003 
71.557899 169.246002 240.350006 
68.958199 170.266998 238.610992 
68.738098 170.645004 236.669998 
71.011398 169.436005 238.906006 
71.146500 169.608994 237.259995 
74.878998 168.572998 240.091995 
77.394798 167.955002 239.979996 
74.826500 168.712997 237.141998 
57.220200 176.945999 250.352005 
54.285702 176.789993 247.417007 
57.246700 177.404007 245.697006 
54.285702 176.951004 245.949997 
55.752998 177.358994 245.216995 
54.285702 177.091995 244.483002 
54.285702 177.203003 243.016006 
55.752998 177.434998 243.016006 
57.209801 177.246994 242.192001 
54.285702 177.302002 241.548996 
55.752998 177.632996 238.615005 
54.285702 177.393997 240.082001 
57.220200 177.436005 238.613998 
54.285702 177.455002 238.613998 
54.285702 177.466003 237.147003 
55.752998 177.628006 236.414001 
57.258900 177.529007 236.384995 
80.696098 163.682007 281.157990 
82.163399 163.419998 282.625000 
82.163399 163.449997 281.157990 
79.228897 164.320007 279.691010 
80.696098 163.815994 279.691010 
81.764900 163.955994 276.885010 
82.163399 163.460007 280.769989 
82.233704 163.569000 278.957001 
83.630600 163.324005 279.690002 
83.630600 163.401993 278.222992 
81.596703 164.203995 275.694000 
80.236702 164.973999 273.946014 
83.630600 163.462006 277.419006 
83.630600 163.580994 275.289001 
82.897003 163.899994 273.821991 
83.684196 163.748993 271.135010 
83.901497 163.462006 276.756012 
84.157799 163.462997 275.289001 
85.097900 163.397995 272.354004 
85.097900 163.322998 273.821014 
84.323502 163.464005 273.821014 
80.696098 164.932999 270.322998 
81.336800 164.839005 268.097992 
82.163399 164.496994 269.420013 
83.803802 163.947998 269.412994 
83.308098 164.580002 267.075012 
80.696098 165.080002 266.485992 
85.097900 163.464996 271.121002 
85.112701 163.651993 269.429993 
85.262199 163.464996 270.886993 
86.565102 163.466003 269.842010 
87.105598 163.466003 269.420013 
86.565102 163.729004 267.953003 
86.180298 164.056000 266.488007 
88.032402 163.636002 266.484985 
83.630600 164.835007 264.285004 
85.244301 164.509003 264.459015 
87.359200 163.856003 265.303986 
86.565102 164.162003 262.816986 
88.713600 163.468002 265.018005 
88.761002 163.468994 263.550995 
82.163399 165.248993 260.617004 
88.769096 163.470001 262.083008 
88.686897 163.470993 258.415009 
89.499603 163.222000 260.615997 
89.499603 163.255005 262.083008 
83.947304 165.003006 258.039001 
86.565102 164.253006 258.415985 
89.499603 163.179993 259.148987 
89.499603 163.100998 257.681000 
88.032402 163.753006 256.947998 
86.260002 164.514008 255.391006 
89.499603 163.039001 256.213989 
88.326500 163.699005 254.701004 
85.459602 165.067993 253.281006 
86.565102 164.873001 251.813004 
88.032402 164.229996 251.813004 
87.689102 164.944000 246.677994 
90.966904 162.429993 254.746994 
90.966904 162.669998 253.279999 
90.966904 162.845993 251.811996 
90.334801 163.348007 249.612000 
92.434097 162.261993 250.345001 
92.434097 162.432999 248.878006 
89.499603 164.181000 245.944000 
88.208603 164.945999 243.009995 
89.499603 164.438004 243.009995 
88.863503 164.949005 237.141006 
89.499603 164.735992 237.141006 
92.434097 162.621994 247.410995 
92.434097 163.160995 243.009003 
94.243599 162.009995 245.942993 
95.306801 162.011993 243.009003 
95.368599 162.630005 237.139999 
95.368599 161.990005 243.007996 
79.228897 165.296997 273.821991 
80.696098 165.296997 263.552002 
79.962502 165.537003 262.817993 
80.696098 165.621994 260.617004 
80.473198 166.326996 257.683014 
82.163399 165.423004 259.149994 
82.897003 165.651993 256.216003 
79.594597 167.001007 254.796997 
83.489403 165.660995 254.572998 
81.126198 166.569000 253.281006 
82.364998 166.203003 250.792007 
83.522400 165.785995 250.671997 
78.798401 167.834000 249.613998 
80.682701 167.223007 247.735992 
82.263100 166.679993 247.572998 
86.565102 165.324997 247.412003 
79.808098 167.451004 245.451996 
81.632301 167.003006 245.876999 
83.426201 166.544006 245.574005 
79.228897 167.427994 243.011002 
82.163399 166.809998 243.011002 
83.630600 166.384003 240.076004 
86.565102 165.447998 245.945007 
86.565102 165.537003 243.009995 
80.696098 167.108002 240.076996 
80.696098 167.199005 237.141998 
83.630600 166.483994 237.141998 
55.752998 177.468994 233.479004 
54.285702 177.434998 235.679993 
52.818501 177.300995 235.679993 
52.818501 177.298004 234.212997 
52.818501 177.304993 232.744995 
55.752998 177.311996 230.544006 
52.818501 177.313004 231.278000 
52.818501 177.322006 229.811005 
55.752998 177.276993 228.343994 
52.818501 177.354996 228.343994 
52.818501 177.414993 226.876007 
55.752998 177.384995 226.143005 
52.818501 177.503998 225.408997 
55.019402 177.697006 223.207993 
52.818501 177.623001 223.942001 
52.818501 177.764999 222.475006 
52.818501 177.973007 221.007996 
55.019402 178.139999 220.451004 
52.818501 178.162994 220.113007 
52.818501 178.283005 219.541000 
52.818501 178.621994 218.074005 
54.285702 178.649994 218.074005 
60.074902 176.403000 231.251007 
64.098801 173.753998 234.210999 
66.023697 172.658005 234.210007 
65.141403 173.755005 231.276001 
66.023697 173.307007 231.276001 
61.612301 175.294006 234.261002 
63.089199 174.871994 231.276993 
59.428001 176.690994 228.343002 
60.154701 176.432007 228.343002 
60.154701 176.692993 224.835999 
66.023697 174.214005 225.408005 
69.816597 170.820007 234.209000 
71.892700 170.087997 234.209000 
77.761703 168.830994 231.274002 
71.892700 170.820999 230.929993 
74.540901 170.824005 225.406006 
77.761703 169.820007 225.404999 
68.958199 171.899994 231.274994 
71.892700 171.809998 225.406006 
61.915798 176.695999 219.539993 
66.023697 174.955994 219.539001 
57.220200 177.449997 234.212997 
58.608200 177.028000 233.770996 
57.220200 177.147995 229.811005 
58.687500 176.897003 231.278000 
57.220200 177.186005 226.876007 
57.220200 177.447998 223.942001 
60.154701 176.947998 222.473999 
57.220200 177.886993 221.007996 
60.154701 177.283997 219.539993 
55.752998 178.537003 218.074005 
57.220200 178.315994 218.072998 
89.499603 164.951004 234.240997 
93.211800 164.955002 225.403000 
89.499603 166.024002 225.404007 
5.130910 191.268005 424.960999 
0.399185 201.537994 424.966003 
1.464930 199.554993 424.964996 
1.464930 200.070007 426.726990 
2.668530 197.136993 424.963989 
0.017273 203.003998 427.901001 
-0.539482 203.005997 424.233002 
1.464930 200.552994 427.899994 
-2.307420 205.940002 424.967987 
-1.363940 204.436005 424.951996 
-1.469540 205.938995 426.697998 
-0.820068 205.938995 427.903015 
-1.469540 208.873993 427.345001 
-3.046600 208.875000 424.970001 
-2.962530 207.395996 424.941986 
-1.046560 208.873001 427.903992 
-1.469540 211.809006 425.950989 
-2.020140 211.809006 424.971008 
-0.244995 211.807999 427.906006 
5.377390 189.927994 422.010986 
5.279880 189.804001 418.358002 
4.409420 192.572998 421.769012 
4.399430 192.936996 424.962006 
3.372770 195.671005 422.028992 
3.917100 194.201996 424.963013 
3.603230 195.375000 420.703003 
4.015990 194.466995 418.947998 
4.307560 193.529999 417.540009 
5.010250 189.755997 413.549988 
4.804930 191.272003 416.890991 
4.700210 191.272995 414.690002 
4.644450 191.722000 413.000000 
4.420190 193.315994 415.608002 
4.337770 195.675995 412.661011 
1.766670 198.503998 422.261993 
0.659626 200.192993 422.070007 
0.500833 200.158997 420.579010 
1.619070 198.662994 420.700989 
0.453710 200.167007 419.139008 
1.631720 198.770996 419.437012 
2.748750 197.024994 422.135010 
3.719360 195.671997 419.093994 
2.917550 197.098999 420.484985 
3.575580 197.139999 417.627991 
2.932190 197.626999 419.095001 
1.440980 199.365997 416.544006 
0.766571 200.076004 416.161987 
1.464930 199.496994 414.694000 
4.144650 195.673996 416.160004 
3.931820 197.123001 415.682007 
4.076230 197.143005 412.492004 
2.932190 198.171997 417.627991 
2.946320 198.612000 415.579010 
3.234020 198.610001 412.493011 
2.932190 198.876007 412.493011 
5.250890 189.807007 411.755005 
5.850670 189.744003 410.229004 
4.853620 191.274002 411.756012 
5.123120 191.274994 410.289001 
5.800470 191.035995 408.582001 
7.083320 191.319000 407.053009 
4.812510 192.742004 410.289001 
5.024040 192.753998 408.928009 
5.754160 192.610992 406.941986 
5.145870 194.210999 407.355988 
6.530350 192.744003 405.888000 
7.384790 192.442001 405.579010 
5.944050 194.843002 404.667999 
6.425830 194.212006 404.420990 
7.511800 193.304993 404.321014 
7.372600 194.244995 403.074005 
0.936523 200.057007 410.869995 
1.464930 199.559998 411.760010 
0.809477 200.145004 407.617004 
1.416910 199.645004 407.821991 
4.331190 197.052002 409.128998 
4.768270 195.654999 408.050995 
4.868630 197.149002 405.890015 
3.500140 198.613998 408.903992 
2.932190 199.039993 409.558990 
3.921160 198.569000 406.186005 
4.479750 197.828003 406.579987 
2.978740 199.248001 406.014008 
1.593450 200.231003 404.380005 
5.292650 195.679001 405.889008 
5.000430 197.147003 404.423004 
5.866440 195.682007 403.489014 
6.764170 195.210007 402.342987 
7.395130 195.070999 401.477997 
5.013460 197.147995 402.954987 
5.755850 196.479996 401.627014 
4.221220 198.304993 404.673004 
2.677310 199.626999 403.472992 
1.881530 200.307999 402.783997 
4.153380 198.304001 402.173004 
1.061220 201.550995 398.556000 
-4.727750 208.871994 420.075989 
-4.339830 207.548996 420.338013 
-4.382630 208.856995 421.941010 
-4.404040 211.610992 419.101990 
-4.818880 208.878998 416.899994 
-4.321760 207.410995 417.632996 
-4.277070 207.503006 415.389008 
-4.765440 208.880005 414.699005 
-4.673440 208.882996 411.872009 
-4.114450 207.811996 412.493988 
-4.404040 211.813004 416.911987 
-4.464570 211.813995 416.167999 
-4.665190 211.815002 413.233002 
-1.056660 203.007996 420.565002 
-1.148140 202.863998 418.381989 
-2.990440 206.013000 423.151001 
-1.669840 204.438004 423.536011 
-1.628430 203.960999 421.299011 
-2.823440 205.231995 418.359009 
-3.359610 206.059006 420.558014 
-3.402490 205.947998 418.346008 
-0.147754 201.261002 416.667999 
-0.130915 201.259003 414.756989 
-0.091239 201.348007 412.821991 
-1.813130 204.106995 414.738007 
-0.613053 202.604004 412.636993 
-3.011660 205.552002 416.216003 
-3.585430 207.408005 423.502014 
-4.006130 207.408997 422.035004 
-3.808240 208.876007 423.502991 
-3.454710 211.811005 422.036987 
-4.180770 211.811996 419.101990 
-3.088500 206.164001 413.994995 
-4.745840 208.835999 409.075012 
-4.962940 211.815994 410.299011 
-5.243740 211.817993 407.364014 
-4.813160 208.882996 407.363007 
-5.194230 211.819000 404.429993 
-4.758900 208.858002 405.585999 
-4.849980 211.820999 401.494995 
-4.404040 211.384995 398.561005 
-4.404040 208.884995 403.226990 
-0.045459 201.417999 410.708008 
-0.110129 201.289001 407.511993 
-1.135940 204.481003 408.093994 
-2.355260 205.960007 411.684998 
-1.415120 204.675003 411.751007 
-2.224930 206.061005 410.104004 
-1.277580 204.843994 410.233002 
-2.069550 205.949997 405.894012 
-1.451020 205.128006 405.660004 
-0.016950 201.526993 405.454010 
-0.555575 202.921997 404.852997 
0.228753 201.815994 402.854004 
-0.583160 203.016006 402.958008 
-0.396248 203.018005 400.756989 
-2.198580 205.985001 403.121002 
-1.107620 204.481995 405.893005 
-1.110210 204.167007 403.135010 
-1.551430 205.653000 399.608002 
-1.466920 204.960007 401.467010 
-3.694350 207.447998 410.727997 
-3.317510 207.205002 404.516998 
-3.188640 207.309006 402.609985 
-3.638120 208.886993 399.292999 
8.709680 191.419998 406.459991 
10.476500 189.893005 408.178009 
11.975700 189.259995 408.522003 
13.202900 188.778000 408.820007 
13.202900 189.360001 407.352997 
14.670100 188.727005 407.352997 
10.256000 191.917999 404.877014 
13.303900 190.289993 405.171997 
11.854700 190.925003 405.428009 
13.842100 190.658997 403.362000 
9.893990 193.134995 402.824005 
10.607700 193.328003 401.480011 
11.735700 192.100006 402.953003 
13.202900 191.699005 401.485992 
14.670100 189.203995 405.885986 
15.922300 189.106995 403.809998 
15.371700 190.832001 399.118011 
16.137400 189.688995 401.050995 
7.478890 195.712997 399.950012 
5.756070 197.205994 399.536987 
7.072900 196.994003 397.071014 
7.785630 196.091003 398.372009 
4.495650 198.438995 399.339996 
2.937710 200.072006 398.023987 
1.349260 201.470001 397.071014 
4.443520 199.266006 396.263000 
6.202860 198.059998 395.604004 
6.087270 198.932007 392.803009 
7.504750 197.378006 393.744995 
4.528010 200.337006 392.718994 
6.039230 199.365005 391.005005 
6.085000 199.473999 386.048004 
8.021450 197.287994 390.614014 
4.420220 201.203995 387.630005 
7.129470 198.669998 384.884003 
4.961130 200.957993 382.519012 
7.730550 198.884995 381.958008 
6.141410 200.733994 377.279999 
8.559520 199.154999 377.645996 
7.349020 199.602997 379.566010 
-4.472430 211.822006 398.561005 
-4.404040 211.822006 397.740997 
-4.473570 211.826004 391.225006 
-4.264230 210.406006 389.585999 
-4.404040 211.824997 392.679993 
-4.556760 211.826004 389.756989 
-0.002304 202.667999 399.290009 
-0.170715 203.018997 398.556000 
-0.017460 202.975006 396.812988 
0.007319 203.087006 395.880005 
1.499090 201.725998 395.427002 
-1.469540 205.824005 396.356995 
0.720487 202.979004 393.800995 
1.634860 202.757996 392.088013 
-0.100026 203.731995 394.436005 
-0.089018 204.270004 392.735992 
-1.147130 205.899994 392.908997 
1.377620 203.574997 389.998993 
-0.078783 204.820007 390.144012 
-1.216460 205.977997 391.174011 
-1.223730 206.011002 389.750000 
4.302620 200.960999 390.924011 
2.928030 202.175003 390.588989 
-2.786040 207.473007 399.618988 
-2.362900 207.488998 394.665985 
-3.363360 208.936996 397.088989 
-3.190510 208.959000 394.425995 
-4.323300 211.824005 395.626007 
-3.097710 208.621002 392.820007 
-2.347830 207.309998 389.463989 
-3.561030 208.863998 389.981995 
-3.993410 210.358002 392.691010 
-4.566360 211.826996 388.290009 
-4.276780 210.449997 387.661011 
-4.496280 211.828003 386.822998 
-4.404040 211.828003 385.787994 
-0.271425 205.287003 388.303009 
2.492910 203.164993 387.177002 
-0.341572 205.658005 385.669006 
2.566640 203.121002 385.377991 
1.800380 203.647003 383.056000 
-0.120107 205.695999 383.789001 
4.448700 201.244995 384.328003 
1.199390 204.281006 382.355988 
-0.128609 206.667999 380.847992 
1.446250 204.442001 379.483002 
0.105318 206.492004 379.567993 
1.332990 204.423996 376.515015 
1.430540 204.442993 378.006989 
2.581850 202.942993 381.835999 
2.848520 202.947006 379.550995 
4.399430 201.884995 378.014008 
2.904660 203.003006 378.016998 
-3.579820 208.908997 387.574005 
-2.114900 207.354004 385.886993 
-3.110530 208.843994 384.750000 
-3.866570 210.298004 384.735992 
-4.349980 211.828995 385.355988 
-4.137300 211.828995 383.888000 
-1.142850 207.427994 382.419006 
-2.095280 208.951996 380.973999 
-1.900990 208.897003 379.484985 
-1.240780 208.220001 379.473999 
-2.017600 208.925003 377.822998 
-1.010950 207.841995 377.854004 
-3.135660 210.348999 381.253998 
-3.891300 211.830002 382.420990 
-3.691500 211.830994 380.954010 
-2.954990 210.352997 379.485992 
-3.037660 210.363998 377.766998 
-3.609390 211.830994 379.487000 
-3.671280 211.832001 378.019012 
10.920400 193.667999 399.852997 
11.735700 193.507996 398.552002 
8.996960 195.929993 395.916992 
14.670100 191.841003 397.084015 
13.936500 192.606995 395.617004 
17.448299 189.869995 397.199005 
17.131901 190.289001 395.750000 
10.309100 195.158997 392.795013 
13.622900 192.895004 392.644989 
13.519600 193.044998 394.170013 
11.235700 194.063004 389.782013 
13.355700 192.863998 391.173004 
14.448600 192.104004 389.747986 
18.380899 189.636002 393.934998 
16.160900 191.082001 393.778992 
17.892700 189.985992 391.128998 
20.197001 189.113998 391.213013 
19.071899 189.315002 392.681000 
18.074600 190.121002 389.898010 
15.965600 191.057999 391.233002 
16.280001 191.024002 389.583008 
8.798250 196.292007 393.662994 
9.511960 195.587997 390.105011 
10.378100 194.735001 389.907013 
8.322720 197.016006 388.131989 
20.924400 189.195007 390.230988 
13.844600 192.822998 388.251007 
11.816300 193.955002 388.048004 
10.879500 195.619003 385.395996 
17.069099 191.141006 388.354004 
19.071899 190.324005 388.279999 
17.842699 191.505005 386.907990 
14.670100 193.671005 385.346985 
12.327500 195.429993 383.867004 
19.071899 191.916000 383.878998 
18.158899 191.940994 385.411011 
15.557600 194.276993 381.593994 
19.196400 193.227005 378.729004 
10.158700 195.072998 388.341003 
8.807380 196.682007 386.834015 
10.188500 195.520004 386.725006 
9.301320 197.246002 383.816010 
12.510800 195.699005 382.425995 
10.216900 197.143997 382.130005 
11.735700 197.145004 377.945007 
13.202900 195.690994 380.528992 
14.351500 195.888000 376.834991 
15.562800 195.182999 377.328003 
20.931000 189.757004 388.104004 
20.539101 190.192993 386.812012 
21.630899 189.707993 386.933990 
20.675301 190.582993 385.000000 
22.026501 189.802994 384.467987 
23.511700 189.184006 384.123993 
26.566401 188.352997 383.877014 
22.028799 190.789993 380.256012 
24.903900 189.218002 380.867004 
23.462999 189.822006 380.233002 
23.648399 190.005997 377.369995 
24.940901 189.475006 376.540985 
21.974300 191.266998 376.976990 
20.425699 192.509003 378.274994 
-4.404040 212.546005 413.234009 
-4.404040 212.692001 410.299011 
-4.404040 214.175995 407.364990 
-4.404040 211.828003 392.691986 
-1.469540 207.468002 373.408997 
-0.527076 206.076996 372.377991 
1.331750 204.272995 375.092987 
1.319860 204.199997 373.671997 
4.312150 202.076004 375.183990 
2.920320 203.011993 376.552002 
5.395320 201.490997 374.346008 
8.067540 199.914993 374.345001 
2.927720 203.033997 373.839996 
3.029420 203.141006 372.433014 
9.112080 199.626999 372.144012 
1.288220 204.220993 372.134003 
-0.357722 205.733994 370.584991 
3.665810 202.983002 370.678986 
6.600300 201.300995 370.678009 
-2.618760 208.899994 373.615997 
-2.762650 208.835007 371.548004 
-3.819570 211.832993 376.552002 
-3.980270 211.834000 375.084991 
-3.556780 210.367004 373.617004 
-3.710180 210.363007 371.421997 
-4.117030 211.834000 373.618011 
-4.204500 211.835007 372.149994 
-1.710020 207.434006 370.681000 
-4.233800 211.835999 370.683014 
19.071899 193.746994 373.609009 
18.910700 193.809006 376.093994 
17.710100 194.481003 374.720001 
17.604601 194.488007 369.941010 
19.071899 193.660004 369.574005 
17.862400 194.382996 367.739990 
11.002000 197.843994 376.545013 
12.907400 197.013000 374.583008 
11.002000 198.507996 371.410004 
13.107000 197.098007 370.675995 
15.659300 195.416000 374.898987 
14.926000 195.845993 372.143005 
11.735700 198.205994 367.742004 
14.670100 196.248001 368.475006 
8.603360 200.098007 370.677002 
14.011700 196.817993 366.273987 
11.582200 198.569000 365.540985 
15.844200 195.520996 368.473999 
16.137400 195.395004 364.806000 
24.778200 189.679001 373.057007 
23.473600 190.188004 374.341003 
21.995100 191.238998 372.873993 
23.529301 190.210999 372.247009 
20.467199 192.684998 375.946014 
20.475800 192.619003 370.789001 
26.408100 189.003006 376.540985 
26.408100 189.076004 375.074005 
26.408100 189.158005 373.606995 
26.408100 189.214996 372.139008 
24.940901 189.938004 369.015015 
21.984699 191.317001 370.976990 
23.473600 190.513000 369.938995 
22.186300 191.440994 369.178986 
23.439400 190.966003 366.759003 
25.066799 190.100998 365.575989 
20.580900 192.714005 368.223999 
20.918600 192.709000 365.604004 
22.006399 192.009995 366.272003 
26.408100 189.281998 370.671997 
26.408100 189.378006 369.204987 
26.408100 189.468994 367.738007 
26.408100 189.546005 366.270996 
18.116301 194.177994 361.713989 
19.071899 193.647003 363.338013 
17.547600 194.084000 355.457001 
20.539101 192.274002 358.936005 
18.690201 193.709000 360.376007 
19.397400 192.768997 354.533997 
19.705200 192.701004 356.734985 
12.758300 197.854004 363.937012 
13.202900 197.682999 360.404999 
16.137400 195.459000 362.605011 
15.976300 195.606003 359.903992 
13.542600 197.425995 358.937988 
12.836100 197.766998 356.994995 
12.972100 197.171005 354.536011 
15.614700 195.701996 357.470001 
15.176100 195.703995 355.269012 
23.453300 190.979996 364.313995 
24.940901 190.110001 362.602997 
22.472000 191.298996 361.135986 
23.473600 190.714005 361.135986 
24.940901 190.087006 359.667999 
22.151699 191.919006 364.321014 
20.539101 192.804993 362.847992 
26.408100 189.589005 364.803009 
26.408100 189.604004 363.335999 
26.408100 189.632996 361.868988 
26.408100 189.666000 360.402008 
21.922400 191.296997 358.093994 
23.473600 190.561996 358.200989 
24.940901 190.104004 356.000000 
22.060600 191.154999 354.695007 
23.473600 190.466995 353.433014 
24.940901 190.134995 353.799011 
26.408100 189.688004 358.933990 
26.408100 189.720001 357.467010 
26.408100 189.774994 356.000000 
26.408100 189.835007 354.748993 
26.434200 189.835007 354.532990 
5.698980 202.865005 342.799011 
7.447010 201.578995 342.800995 
4.399430 204.059006 342.067993 
2.850440 205.516998 340.967987 
-1.705800 208.916000 340.970001 
-0.002304 207.798996 342.803009 
1.464930 206.740997 342.069000 
-3.265290 210.382996 340.971008 
-2.936800 209.899994 342.804993 
-3.879430 211.848999 342.806000 
7.159250 201.727997 341.105011 
5.793130 202.996994 339.812988 
7.541890 201.154999 337.830994 
6.014700 203.044998 335.398987 
4.399430 204.294006 339.867004 
4.702370 204.186996 335.773010 
2.818830 205.701996 336.904999 
1.464930 206.781998 339.868988 
7.423090 200.977997 332.235992 
5.876990 203.080994 333.779999 
5.773360 202.731995 329.571014 
2.774490 205.660004 334.937988 
4.399430 204.283997 333.997986 
4.399430 203.798004 329.596008 
3.019760 204.707001 330.020996 
1.696670 205.824997 330.885010 
-0.002304 207.893005 339.868988 
-1.329010 208.970993 337.165009 
0.151111 208.020996 337.095001 
-2.936800 210.121994 339.136993 
-3.836410 211.850006 341.338013 
-3.814510 211.850998 339.871002 
-3.060300 210.358002 337.035004 
-3.787000 211.852005 338.403992 
-3.763290 211.852005 336.936005 
-1.440380 208.934998 335.484009 
0.264649 207.820007 335.600006 
-2.130200 208.955002 332.807007 
-2.697810 209.151993 330.334991 
-0.975829 207.983002 331.595001 
-3.139900 210.332001 335.066010 
-3.801560 211.852997 335.468994 
-3.913560 211.854004 334.002014 
-3.726380 210.388000 331.066986 
-4.091720 211.854004 332.535004 
-4.300640 211.854996 331.067993 
16.030600 194.628998 352.341003 
18.083799 193.084000 351.356995 
17.889700 193.013000 349.362000 
18.986401 192.227005 348.710999 
16.757000 194.001007 349.756012 
17.879101 193.085007 345.009003 
19.071899 192.220993 344.997009 
16.137400 194.628006 346.464996 
18.739401 192.307007 341.412994 
17.330299 193.378006 342.864990 
11.745600 197.908005 353.069000 
10.797600 198.639999 351.602997 
13.660100 196.501999 351.341003 
14.070100 196.363007 348.828003 
11.387300 198.375000 348.667999 
12.096900 197.848007 345.657013 
8.856570 200.544006 342.635010 
11.244600 198.563995 343.770996 
13.012900 197.011002 344.360992 
13.107100 196.600006 341.553986 
14.679900 195.673996 344.821014 
14.639500 195.358002 342.785004 
22.006399 190.785995 349.765015 
21.214300 191.304001 351.598999 
23.473600 190.339005 349.398010 
20.565001 191.360992 348.782013 
26.650600 189.835999 353.065002 
26.408100 189.940994 350.864990 
26.782000 189.835999 351.597992 
26.872700 189.837006 350.131012 
26.408100 189.987000 348.664001 
27.010000 189.837997 348.664001 
22.064899 190.630005 346.334991 
23.480000 190.231003 345.842010 
22.006399 190.800003 343.161987 
20.663799 191.307007 344.996002 
23.473600 190.522995 342.062012 
24.940901 190.324997 342.061005 
24.940901 190.141006 344.996002 
26.408100 190.011002 347.196991 
26.408100 190.005005 345.729004 
26.408100 190.000000 344.261993 
26.408100 190.011002 342.795013 
14.279600 195.587997 341.362000 
17.922300 193.003998 338.394989 
19.071899 192.227997 339.127991 
17.693100 193.003006 333.279999 
19.173700 192.255997 335.958008 
16.597799 193.983002 337.997009 
19.033001 192.337997 333.737000 
16.148001 194.084000 332.462006 
17.604601 193.309998 331.058990 
16.142799 194.231995 330.464996 
20.051201 192.378006 332.364014 
19.071899 192.970001 331.058014 
10.380000 199.037003 340.536987 
8.801160 200.281006 339.864990 
12.385500 197.313004 339.839996 
8.662970 199.945007 336.251007 
10.926600 198.507996 338.700989 
10.257000 198.524002 335.760010 
13.329900 196.647995 338.371002 
13.258300 196.641998 337.201996 
11.791700 197.207001 334.526001 
13.943200 195.917999 335.062988 
11.742800 197.186005 332.526001 
14.186600 195.636002 332.808014 
13.107400 196.464005 331.229004 
10.350200 198.225006 333.720001 
8.526950 199.904999 333.654999 
7.333920 201.164993 328.862000 
10.288200 198.535004 330.454987 
14.491000 195.654007 330.799988 
20.644899 191.352005 341.328003 
21.945999 191.054001 338.700012 
23.282700 190.798996 338.850006 
24.940901 190.490997 339.860992 
24.940901 190.675995 338.393005 
23.471100 191.141006 336.921997 
21.964300 191.298996 336.670990 
24.940901 190.925003 336.925995 
20.613701 191.740005 335.725006 
26.408100 190.020996 341.328003 
26.408100 190.065994 339.859985 
26.408100 190.110992 338.393005 
